ncols         322
nrows         59
xllcorner     528.155707794
yllcorner     1263275.51667
cellsize      59.2252938
NODATA_value  -9999
3574 3580 3580 3579 3574 3571 3568 3549 3537 3528 3516 3509 3494 3463 3453 3443 3416 3401 3388 3361 3349 3337 3311 3300 3291 3270 3265 3255 3251 3250 3245 3245 3245 3248 3252 3257 3269 3281 3297 3319 3342 3354 3380 3402 3414 3456 3485 3514 3560 3579 3598 3660 3680 3720 3782 3816 3876 3905 3938 3989 4033 4062 4126 4159 4196 4275 4307 4339 4418 4456 4495 4581 4612 4663 4737 4767 4795 4850 4896 4923 4962 5009 5054 5072 5087 5111 5123 5134 5145 5144 5143 5141 5138 5139 5150 5156 5162 5173 5177 5184 5202 5215 5230 5258 5273 5288 5321 5339 5376 5396 5416 5461 5487 5512 5552 5572 5596 5653 5682 5708 5759 5780 5801 5858 5886 5908 5951 5971 5992 6027 6045 6060 6094 6114 6126 6151 6162 6191 6209 6227 6268 6291 6312 6327 6323 6302 6231 6194 6155 6077 6040 6009 5949 5925 5907 5886 5870 5854 5844 5848 5851 5864 5881 5927 5987 6001 6066 6096 6123 6184 6219 6250 6279 6283 6282 6269 6259 6250 6231 6224 6219 6215 6211 6211 6221 6227 6231 6247 6255 6262 6263 6269 6278 6279 6277 6288 6292 6293 6293 6293 6290 6278 6270 6261 6246 6240 6230 6202 6185 6168 6144 6131 6115 6078 6066 6051 6016 6000 5970 5952 5932 5890 5866 5841 5789 5765 5733 5687 5662 5636 5580 5555 5531 5469 5439 5411 5348 5313 5283 5235 5200 5182 5105 5089 5042 5017 4987 4919 4886 4857 4803 4776 4747 4690 4664 4638 4593 4571 4546 4501 4480 4456 4412 4389 4369 4319 4304 4273 4228 4200 4171 4114 4088 4036 4007 3979 3927 3898 3866 3799 3760 3725 3672 3652 3625 3564 3536 3507 3444 3411 3377 3316 3266 3264 3198 3169 3135 3072 3045 2990 2962 2929 2867 2840 2814 2762 2734 2708 2656 2625 2593 2536 2509 2480 2423 2392 2366 2309 2278 2246 2198 2175
3556 3562 3562 3561 3554 3548 3541 3520 3508 3497 3484 3477 3461 3431 3423 3411 3378 3364 3351 3326 3315 3305 3282 3271 3260 3242 3238 3228 3227 3228 3229 3231 3234 3239 3244 3254 3277 3288 3301 3325 3354 3366 3393 3414 3429 3472 3500 3527 3574 3593 3611 3671 3692 3733 3798 3830 3890 3921 3955 4001 4044 4071 4130 4161 4195 4275 4311 4346 4421 4456 4498 4593 4625 4669 4744 4776 4807 4874 4906 4934 4967 5021 5064 5080 5095 5117 5128 5139 5151 5150 5147 5140 5137 5136 5147 5155 5162 5173 5177 5183 5203 5215 5227 5249 5263 5279 5315 5334 5370 5388 5409 5454 5479 5504 5547 5567 5593 5647 5675 5703 5754 5774 5793 5849 5876 5899 5943 5964 5983 6019 6034 6050 6081 6099 6109 6139 6150 6182 6203 6225 6272 6295 6315 6313 6294 6258 6172 6134 6094 6015 5978 5944 5878 5858 5848 5806 5791 5780 5769 5772 5778 5796 5813 5861 5897 5934 5989 6022 6051 6114 6151 6185 6235 6249 6258 6256 6248 6240 6220 6214 6210 6202 6199 6199 6211 6217 6219 6231 6239 6242 6250 6253 6261 6263 6264 6276 6282 6284 6279 6277 6275 6268 6262 6253 6239 6233 6224 6198 6183 6168 6141 6126 6112 6073 6061 6051 6014 5996 5966 5950 5929 5889 5867 5842 5794 5770 5742 5691 5664 5638 5581 5557 5533 5475 5443 5412 5350 5317 5289 5239 5204 5187 5118 5089 5036 5009 4980 4913 4879 4849 4795 4766 4737 4680 4654 4629 4584 4559 4534 4492 4471 4450 4414 4388 4366 4319 4311 4278 4231 4204 4176 4119 4093 4044 4017 3988 3932 3903 3873 3819 3781 3749 3693 3665 3634 3574 3548 3518 3451 3420 3388 3328 3278 3277 3205 3175 3142 3082 3059 3004 2974 2942 2880 2853 2828 2776 2748 2721 2667 2638 2606 2548 2520 2491 2434 2404 2377 2314 2282 2254 2207 2180
3539 3544 3545 3542 3533 3525 3514 3492 3480 3467 3449 3440 3425 3398 3386 3373 3345 3332 3317 3289 3279 3269 3248 3241 3233 3217 3211 3203 3203 3205 3212 3218 3224 3235 3240 3250 3282 3296 3309 3338 3367 3382 3410 3431 3446 3488 3514 3541 3587 3607 3628 3685 3711 3747 3814 3843 3902 3935 3968 4013 4059 4087 4140 4169 4202 4281 4321 4360 4433 4469 4511 4604 4636 4679 4752 4790 4825 4889 4920 4948 4983 5031 5073 5088 5104 5129 5140 5149 5158 5156 5151 5140 5139 5139 5150 5156 5163 5173 5178 5183 5201 5212 5223 5245 5258 5275 5312 5330 5363 5382 5405 5449 5472 5496 5539 5564 5589 5638 5667 5695 5742 5764 5787 5842 5869 5890 5932 5949 5974 6009 6024 6039 6070 6086 6102 6129 6141 6176 6198 6223 6270 6291 6311 6290 6256 6210 6117 6076 6036 5955 5918 5885 5815 5794 5780 5730 5715 5700 5683 5685 5693 5728 5751 5797 5834 5872 5914 5947 5979 6047 6084 6120 6183 6209 6225 6234 6233 6228 6209 6203 6199 6190 6190 6191 6200 6203 6205 6213 6220 6222 6233 6237 6247 6251 6249 6262 6266 6267 6265 6261 6259 6254 6250 6244 6229 6221 6211 6191 6177 6163 6132 6116 6103 6069 6061 6045 6012 5996 5964 5946 5927 5889 5868 5843 5797 5774 5745 5695 5668 5641 5583 5557 5534 5478 5445 5414 5352 5319 5289 5237 5200 5182 5119 5098 5032 5002 4971 4902 4868 4838 4783 4755 4727 4667 4641 4617 4570 4546 4526 4489 4466 4444 4411 4384 4363 4320 4309 4283 4234 4207 4180 4131 4105 4051 4021 3988 3937 3911 3887 3835 3796 3767 3708 3676 3643 3580 3554 3526 3459 3429 3399 3339 3294 3294 3212 3183 3152 3097 3074 3017 2985 2953 2889 2861 2837 2786 2758 2733 2675 2647 2617 2564 2536 2505 2449 2415 2386 2321 2296 2269 2217 2189
3528 3530 3529 3523 3504 3495 3485 3464 3455 3443 3418 3406 3395 3366 3350 3335 3310 3295 3280 3257 3246 3231 3210 3208 3204 3189 3183 3180 3181 3182 3190 3197 3206 3232 3245 3258 3290 3306 3321 3353 3377 3393 3427 3450 3464 3504 3530 3557 3604 3623 3636 3704 3728 3766 3827 3856 3914 3947 3980 4035 4076 4107 4159 4186 4216 4290 4333 4374 4453 4493 4535 4633 4653 4695 4766 4804 4840 4902 4931 4959 4997 5041 5083 5100 5116 5145 5154 5160 5165 5163 5157 5146 5143 5143 5151 5155 5160 5172 5180 5189 5202 5210 5220 5243 5255 5273 5310 5326 5361 5382 5404 5446 5467 5489 5535 5557 5582 5632 5659 5685 5730 5754 5778 5831 5858 5880 5921 5938 5963 5996 6011 6026 6059 6073 6089 6116 6131 6169 6192 6217 6263 6290 6299 6257 6216 6167 6069 6026 5985 5901 5862 5827 5750 5732 5701 5659 5638 5618 5600 5605 5618 5662 5688 5735 5772 5815 5853 5882 5913 5985 6026 6066 6140 6171 6192 6212 6216 6215 6200 6192 6185 6175 6177 6179 6182 6184 6188 6195 6199 6206 6218 6224 6233 6238 6236 6242 6244 6248 6250 6248 6245 6239 6236 6231 6217 6208 6199 6181 6168 6154 6119 6103 6093 6059 6050 6034 6005 5993 5962 5943 5923 5885 5862 5840 5798 5775 5743 5697 5672 5646 5584 5557 5534 5480 5448 5417 5353 5319 5290 5236 5198 5181 5120 5090 5027 4996 4963 4892 4858 4829 4773 4744 4713 4650 4624 4600 4552 4530 4515 4485 4461 4437 4409 4382 4364 4321 4310 4285 4239 4214 4188 4142 4116 4058 4024 3989 3936 3921 3898 3840 3804 3776 3717 3686 3652 3588 3560 3532 3472 3441 3410 3349 3312 3304 3222 3193 3165 3111 3085 3023 2993 2963 2900 2872 2848 2793 2767 2741 2682 2654 2625 2577 2547 2513 2460 2426 2397 2338 2310 2281 2225 2198
3510 3510 3508 3501 3479 3468 3458 3440 3429 3417 3389 3376 3365 3334 3315 3299 3271 3256 3245 3228 3216 3200 3177 3174 3170 3159 3158 3160 3162 3165 3177 3189 3202 3232 3251 3269 3302 3318 3332 3369 3388 3407 3445 3465 3485 3536 3551 3577 3625 3640 3660 3726 3747 3782 3841 3872 3933 3964 3995 4053 4097 4131 4186 4212 4239 4306 4348 4391 4477 4518 4561 4642 4671 4712 4784 4821 4855 4913 4941 4967 5008 5051 5094 5112 5128 5154 5162 5167 5171 5167 5162 5152 5145 5144 5150 5151 5155 5172 5184 5196 5208 5214 5224 5246 5258 5274 5310 5326 5363 5384 5404 5445 5466 5487 5533 5556 5578 5629 5656 5680 5724 5746 5770 5821 5845 5867 5911 5929 5950 5984 5999 6013 6046 6058 6075 6100 6117 6158 6181 6207 6253 6275 6276 6223 6177 6125 6027 5984 5941 5852 5810 5771 5691 5668 5640 5584 5556 5533 5518 5527 5545 5595 5621 5674 5722 5768 5796 5826 5857 5930 5975 6019 6103 6138 6164 6196 6204 6203 6187 6178 6170 6160 6162 6164 6162 6165 6171 6178 6181 6189 6203 6210 6216 6220 6221 6222 6225 6231 6236 6235 6233 6228 6226 6223 6211 6202 6193 6177 6165 6149 6110 6097 6089 6054 6043 6025 5998 5992 5958 5940 5920 5879 5857 5837 5798 5772 5742 5695 5673 5648 5582 5555 5533 5480 5449 5417 5353 5320 5292 5234 5193 5170 5117 5085 5020 4987 4953 4883 4851 4822 4762 4730 4698 4637 4610 4584 4536 4513 4498 4474 4453 4429 4406 4381 4364 4323 4311 4285 4241 4216 4192 4146 4120 4065 4036 4005 3956 3933 3904 3847 3811 3784 3725 3694 3661 3599 3570 3541 3479 3450 3421 3359 3322 3303 3235 3204 3176 3119 3089 3027 3001 2976 2915 2887 2863 2806 2779 2751 2689 2661 2633 2582 2553 2522 2471 2439 2409 2349 2320 2291 2234 2205
3490 3487 3483 3477 3455 3442 3432 3410 3397 3384 3353 3341 3330 3296 3279 3266 3235 3220 3210 3195 3182 3167 3148 3144 3139 3134 3139 3142 3146 3155 3178 3194 3210 3240 3260 3280 3318 3334 3348 3387 3387 3425 3468 3483 3509 3559 3576 3600 3646 3661 3682 3747 3772 3800 3859 3892 3955 3984 4014 4070 4119 4155 4217 4244 4269 4325 4364 4408 4498 4539 4581 4664 4692 4732 4801 4838 4871 4928 4954 4979 5016 5056 5100 5119 5133 5155 5165 5172 5176 5172 5167 5157 5149 5147 5155 5155 5156 5172 5185 5198 5209 5216 5226 5250 5263 5278 5310 5328 5367 5386 5405 5444 5466 5485 5531 5556 5578 5626 5654 5677 5717 5739 5765 5814 5830 5848 5896 5918 5935 5970 5985 5998 6029 6042 6058 6088 6105 6146 6170 6194 6238 6252 6250 6189 6140 6086 5986 5941 5896 5805 5760 5718 5637 5607 5573 5510 5481 5455 5440 5452 5472 5526 5554 5616 5627 5700 5734 5770 5806 5886 5934 5981 6066 6101 6131 6179 6193 6191 6167 6162 6158 6149 6151 6151 6149 6151 6156 6162 6164 6170 6183 6189 6199 6206 6203 6212 6215 6220 6222 6224 6223 6217 6214 6212 6203 6194 6185 6171 6163 6149 6110 6097 6086 6046 6037 6021 5995 5983 5952 5935 5917 5878 5856 5836 5794 5768 5739 5693 5670 5644 5582 5557 5535 5479 5447 5418 5356 5321 5290 5233 5190 5170 5110 5099 5014 4977 4941 4872 4841 4810 4746 4714 4684 4628 4599 4570 4523 4500 4480 4458 4442 4423 4399 4378 4361 4321 4310 4285 4240 4216 4193 4148 4122 4073 4050 4024 3973 3945 3912 3851 3820 3792 3734 3703 3671 3610 3580 3548 3483 3455 3429 3370 3337 3312 3245 3214 3185 3129 3099 3037 3012 2988 2927 2902 2879 2820 2791 2761 2700 2674 2647 2589 2560 2532 2476 2451 2422 2363 2330 2301 2245 2212
3472 3467 3463 3456 3433 3418 3406 3382 3367 3351 3318 3307 3296 3260 3246 3235 3204 3189 3177 3158 3147 3135 3120 3118 3113 3112 3119 3130 3139 3152 3185 3203 3219 3253 3274 3295 3335 3354 3370 3405 3410 3446 3491 3507 3532 3582 3598 3623 3668 3682 3705 3768 3792 3823 3880 3912 3977 4007 4038 4085 4138 4175 4245 4274 4299 4347 4382 4423 4514 4555 4596 4679 4704 4752 4820 4855 4888 4944 4968 4990 5023 5058 5102 5119 5134 5160 5171 5178 5181 5178 5171 5160 5155 5153 5160 5161 5162 5174 5184 5195 5209 5216 5229 5255 5268 5283 5314 5333 5374 5393 5410 5448 5466 5483 5525 5552 5577 5623 5649 5672 5713 5735 5760 5805 5821 5837 5882 5900 5919 5948 5963 5978 6010 6021 6030 6073 6091 6134 6158 6184 6223 6230 6229 6154 6105 6053 5948 5900 5855 5761 5712 5666 5577 5547 5513 5444 5409 5395 5384 5393 5408 5462 5495 5552 5574 5622 5671 5708 5749 5840 5893 5946 6034 6070 6101 6156 6174 6176 6153 6149 6146 6138 6137 6136 6136 6138 6139 6145 6151 6151 6166 6170 6187 6196 6198 6204 6205 6206 6208 6208 6209 6205 6203 6200 6191 6185 6177 6164 6157 6145 6111 6095 6082 6039 6029 6018 5992 5979 5944 5929 5915 5875 5852 5831 5789 5766 5736 5691 5668 5642 5586 5561 5536 5479 5449 5421 5360 5322 5288 5230 5182 5160 5105 5075 5009 4971 4932 4861 4828 4796 4729 4699 4671 4617 4586 4557 4509 4484 4462 4437 4428 4415 4390 4373 4357 4323 4314 4287 4244 4221 4200 4157 4131 4082 4058 4033 3980 3950 3918 3857 3827 3799 3741 3713 3681 3617 3587 3556 3491 3462 3436 3381 3336 3315 3253 3223 3194 3138 3109 3052 3025 2997 2939 2915 2889 2827 2799 2771 2711 2686 2661 2598 2568 2542 2483 2461 2432 2373 2340 2310 2253 2219
3454 3449 3444 3438 3415 3400 3385 3359 3345 3328 3296 3282 3266 3227 3215 3204 3177 3165 3152 3126 3114 3104 3096 3098 3096 3099 3109 3129 3143 3160 3196 3214 3230 3267 3289 3311 3354 3376 3394 3432 3431 3471 3517 3533 3559 3592 3620 3647 3691 3708 3723 3790 3817 3846 3902 3934 4002 4033 4063 4111 4158 4193 4265 4297 4325 4379 4410 4446 4530 4571 4637 4702 4724 4770 4837 4871 4904 4958 4980 5001 5039 5063 5108 5126 5142 5170 5180 5185 5185 5183 5177 5166 5161 5157 5161 5165 5168 5178 5185 5196 5215 5225 5237 5265 5279 5293 5323 5342 5383 5400 5417 5453 5471 5487 5530 5555 5578 5622 5644 5666 5710 5733 5754 5794 5811 5829 5871 5887 5902 5927 5942 5959 5993 6007 6015 6054 6073 6118 6143 6169 6207 6217 6208 6125 6077 6024 5914 5864 5816 5717 5665 5615 5515 5487 5438 5384 5359 5342 5333 5341 5353 5402 5436 5496 5518 5553 5613 5649 5695 5798 5856 5913 6015 6058 6093 6144 6161 6167 6152 6142 6134 6124 6120 6116 6114 6116 6119 6130 6138 6137 6152 6156 6174 6179 6187 6192 6192 6191 6192 6192 6192 6195 6195 6192 6181 6176 6172 6158 6149 6138 6108 6092 6078 6035 6025 6017 5990 5976 5941 5926 5912 5872 5848 5825 5782 5762 5739 5690 5666 5642 5587 5561 5535 5478 5448 5420 5358 5322 5288 5230 5180 5159 5101 5071 5009 4971 4931 4855 4819 4784 4717 4689 4661 4602 4572 4543 4494 4471 4449 4422 4415 4407 4390 4369 4354 4326 4300 4299 4251 4230 4212 4168 4141 4089 4063 4038 3981 3951 3921 3859 3828 3800 3745 3717 3687 3622 3592 3563 3498 3467 3440 3388 3351 3322 3264 3235 3204 3148 3121 3066 3039 3009 2950 2924 2895 2836 2811 2784 2725 2700 2674 2608 2581 2555 2495 2469 2443 2383 2359 2320 2261 2230
3443 3434 3427 3420 3402 3380 3364 3337 3322 3306 3278 3258 3238 3201 3188 3176 3150 3139 3126 3096 3085 3074 3069 3077 3083 3097 3107 3134 3154 3174 3209 3226 3244 3284 3307 3330 3375 3397 3417 3454 3458 3495 3540 3569 3585 3624 3648 3671 3712 3733 3749 3813 3839 3870 3927 3958 4026 4056 4087 4149 4180 4213 4281 4316 4349 4409 4439 4472 4551 4591 4629 4732 4744 4787 4852 4886 4920 4973 4994 5017 5058 5076 5121 5140 5155 5178 5186 5192 5190 5187 5184 5174 5168 5163 5164 5169 5175 5185 5192 5202 5223 5233 5246 5276 5291 5306 5334 5350 5387 5405 5421 5456 5473 5492 5539 5562 5581 5621 5641 5660 5703 5726 5744 5780 5799 5817 5855 5872 5881 5909 5925 5942 5977 5992 6003 6034 6054 6099 6125 6151 6190 6190 6184 6101 6053 6001 5889 5835 5782 5678 5625 5576 5498 5453 5406 5334 5293 5296 5285 5292 5305 5346 5377 5441 5455 5493 5557 5601 5655 5771 5832 5892 6005 6057 6099 6146 6158 6161 6148 6135 6125 6113 6107 6103 6099 6102 6107 6120 6125 6125 6138 6142 6157 6162 6168 6178 6176 6174 6179 6182 6183 6185 6185 6183 6172 6168 6165 6151 6141 6130 6104 6091 6077 6039 6030 6017 5989 5975 5941 5926 5909 5865 5842 5819 5778 5757 5732 5687 5664 5641 5586 5557 5529 5473 5445 5416 5354 5320 5289 5231 5181 5160 5099 5068 5007 4969 4930 4853 4815 4778 4712 4684 4654 4591 4561 4510 4485 4462 4442 4415 4408 4401 4384 4369 4355 4333 4323 4304 4259 4240 4221 4173 4147 4095 4069 4043 3984 3953 3924 3863 3830 3802 3747 3719 3687 3628 3600 3570 3507 3476 3445 3394 3359 3332 3276 3246 3214 3158 3131 3078 3051 3021 2958 2930 2901 2848 2824 2797 2738 2715 2687 2621 2593 2564 2498 2478 2454 2394 2370 2329 2272 2241
3432 3418 3410 3401 3376 3360 3344 3312 3294 3279 3253 3233 3214 3182 3167 3152 3123 3110 3093 3069 3063 3058 3055 3064 3077 3100 3111 3144 3166 3190 3226 3244 3264 3307 3332 3356 3398 3420 3441 3481 3495 3522 3585 3596 3612 3662 3678 3701 3738 3759 3771 3841 3862 3897 3956 3987 4050 4078 4107 4174 4207 4238 4304 4340 4374 4436 4466 4497 4572 4611 4649 4744 4758 4801 4868 4903 4937 4989 5011 5033 5077 5095 5137 5154 5166 5184 5191 5196 5194 5190 5189 5182 5176 5172 5171 5174 5179 5192 5198 5207 5228 5239 5253 5283 5299 5316 5345 5359 5392 5408 5424 5459 5477 5496 5541 5560 5577 5619 5640 5657 5696 5717 5734 5769 5787 5806 5840 5850 5868 5898 5913 5927 5962 5976 5988 6023 6040 6083 6108 6133 6170 6169 6159 6080 6032 5982 5872 5815 5759 5651 5600 5558 5482 5444 5384 5309 5271 5276 5268 5272 5280 5311 5338 5403 5426 5450 5527 5577 5639 5760 5822 5883 6004 6059 6102 6148 6153 6153 6140 6127 6118 6108 6102 6098 6095 6097 6101 6111 6113 6111 6127 6132 6147 6153 6157 6164 6162 6159 6168 6174 6175 6174 6174 6171 6164 6162 6159 6144 6134 6122 6100 6087 6073 6037 6026 6017 5987 5971 5934 5917 5899 5856 5833 5813 5775 5755 5727 5681 5659 5639 5584 5555 5526 5471 5446 5418 5354 5321 5290 5231 5182 5159 5101 5068 5002 4964 4927 4853 4816 4778 4712 4681 4649 4582 4551 4498 4473 4450 4431 4406 4399 4395 4378 4373 4361 4332 4326 4305 4267 4248 4228 4178 4151 4098 4072 4047 3991 3962 3933 3865 3838 3810 3752 3721 3688 3633 3608 3580 3521 3488 3455 3396 3368 3339 3284 3254 3222 3165 3137 3083 3058 3029 2967 2937 2908 2856 2831 2804 2746 2723 2697 2631 2600 2569 2508 2489 2465 2397 2384 2336 2278 2245
3413 3400 3391 3381 3355 3339 3322 3289 3272 3256 3225 3207 3191 3162 3147 3130 3096 3081 3066 3050 3051 3051 3059 3070 3084 3110 3122 3160 3183 3206 3245 3265 3287 3332 3357 3381 3422 3444 3467 3506 3540 3552 3629 3625 3643 3684 3706 3730 3770 3786 3800 3873 3891 3928 3988 4020 4079 4105 4133 4201 4234 4266 4332 4365 4398 4463 4495 4526 4598 4634 4689 4764 4781 4820 4886 4919 4951 5000 5022 5044 5089 5112 5154 5168 5178 5192 5196 5201 5198 5192 5192 5189 5185 5182 5177 5178 5183 5197 5205 5214 5235 5248 5261 5288 5304 5321 5352 5366 5398 5413 5428 5461 5480 5499 5537 5554 5572 5616 5639 5658 5694 5711 5727 5759 5777 5793 5827 5837 5860 5889 5902 5915 5946 5965 5973 6011 6026 6065 6089 6115 6149 6141 6145 6063 6016 5967 5854 5795 5741 5640 5595 5557 5464 5445 5388 5303 5267 5274 5272 5274 5279 5300 5322 5388 5435 5462 5525 5580 5642 5766 5827 5889 6013 6066 6107 6146 6151 6149 6132 6119 6108 6100 6096 6092 6092 6095 6096 6103 6105 6109 6124 6128 6139 6140 6148 6156 6154 6152 6157 6162 6162 6162 6164 6163 6158 6155 6150 6137 6128 6117 6093 6079 6065 6035 6023 6014 5984 5965 5924 5907 5891 5848 5827 5808 5770 5740 5733 5678 5658 5638 5584 5556 5528 5475 5449 5421 5358 5324 5292 5232 5182 5162 5104 5072 5000 4963 4927 4854 4817 4780 4713 4681 4645 4573 4539 4495 4461 4439 4419 4393 4389 4386 4375 4375 4366 4338 4330 4309 4271 4252 4233 4183 4156 4102 4075 4046 3996 3970 3943 3874 3848 3819 3754 3722 3692 3639 3612 3583 3527 3495 3461 3400 3373 3343 3287 3257 3229 3175 3139 3090 3064 3038 2980 2950 2920 2863 2837 2812 2754 2727 2700 2638 2607 2578 2529 2498 2471 2411 2398 2345 2282 2249
3397 3385 3377 3365 3336 3319 3302 3271 3256 3240 3204 3184 3167 3137 3121 3103 3072 3060 3049 3042 3044 3048 3068 3084 3099 3124 3138 3178 3202 3225 3264 3285 3308 3354 3378 3403 3447 3470 3495 3539 3571 3583 3653 3653 3673 3704 3732 3755 3797 3819 3824 3902 3921 3956 4016 4049 4104 4132 4162 4227 4259 4290 4356 4389 4422 4490 4523 4554 4625 4660 4698 4788 4800 4840 4900 4931 4961 5010 5032 5053 5097 5121 5163 5175 5185 5199 5201 5204 5202 5197 5194 5190 5187 5185 5182 5182 5186 5203 5211 5222 5243 5254 5267 5293 5308 5324 5355 5371 5402 5416 5430 5462 5478 5498 5534 5551 5570 5611 5634 5653 5688 5705 5720 5749 5764 5779 5812 5824 5843 5871 5885 5899 5930 5951 5958 5993 6007 6047 6072 6099 6131 6125 6123 6051 6005 5953 5837 5785 5740 5651 5607 5569 5488 5456 5402 5310 5266 5275 5270 5272 5277 5303 5325 5393 5456 5480 5544 5598 5660 5784 5844 5905 6025 6077 6116 6151 6154 6149 6127 6115 6104 6092 6088 6086 6089 6092 6094 6099 6105 6109 6125 6129 6137 6136 6138 6151 6150 6150 6150 6151 6152 6154 6156 6158 6156 6151 6145 6130 6123 6113 6088 6074 6060 6029 6020 6010 5979 5963 5922 5905 5888 5846 5823 5800 5760 5738 5723 5675 5654 5634 5584 5556 5529 5474 5448 5420 5361 5328 5296 5233 5185 5165 5107 5073 5000 4965 4929 4852 4815 4778 4712 4680 4645 4569 4535 4496 4459 4437 4414 4386 4382 4380 4372 4373 4367 4341 4332 4316 4273 4256 4235 4184 4160 4107 4078 4048 3998 3975 3949 3881 3854 3825 3759 3727 3698 3643 3614 3583 3529 3501 3472 3411 3378 3350 3290 3262 3239 3186 3147 3099 3072 3047 2993 2963 2934 2876 2850 2824 2764 2735 2706 2649 2618 2589 2541 2522 2476 2416 2403 2357 2291 2261
3386 3375 3366 3355 3334 3306 3289 3261 3246 3228 3189 3170 3154 3123 3104 3086 3060 3050 3042 3043 3047 3055 3082 3099 3114 3142 3159 3200 3222 3244 3284 3308 3333 3378 3401 3426 3478 3502 3525 3567 3599 3611 3680 3679 3701 3745 3760 3783 3828 3860 3853 3930 3948 3982 4042 4074 4128 4156 4188 4250 4281 4314 4382 4415 4448 4515 4546 4578 4649 4684 4723 4809 4821 4859 4911 4939 4968 5019 5043 5065 5106 5127 5162 5173 5184 5199 5202 5206 5207 5203 5200 5188 5185 5186 5185 5184 5188 5206 5216 5226 5247 5257 5270 5299 5314 5328 5359 5376 5405 5418 5433 5464 5481 5498 5534 5551 5568 5602 5625 5647 5680 5694 5708 5736 5750 5764 5797 5811 5823 5849 5865 5881 5913 5931 5931 5976 5993 6034 6060 6086 6116 6117 6115 6038 5991 5939 5830 5786 5750 5672 5630 5592 5503 5475 5415 5330 5268 5281 5268 5269 5280 5321 5349 5415 5459 5494 5577 5631 5691 5808 5865 5923 6039 6090 6128 6164 6161 6149 6124 6114 6106 6090 6086 6084 6086 6088 6091 6101 6107 6115 6128 6133 6142 6139 6136 6149 6151 6151 6149 6148 6147 6147 6150 6151 6150 6145 6137 6122 6115 6106 6083 6068 6054 6028 6016 6009 5979 5961 5922 5905 5886 5842 5818 5792 5748 5732 5720 5672 5651 5630 5585 5558 5530 5472 5446 5420 5364 5333 5302 5236 5188 5164 5107 5072 5001 4965 4928 4853 4818 4781 4711 4679 4646 4575 4544 4504 4463 4438 4414 4383 4381 4381 4376 4375 4370 4347 4341 4319 4281 4261 4237 4188 4163 4113 4087 4059 4006 3980 3952 3884 3856 3829 3768 3738 3708 3649 3619 3588 3535 3512 3487 3425 3388 3358 3299 3276 3254 3196 3157 3111 3083 3058 3005 2978 2948 2891 2865 2837 2775 2747 2718 2658 2627 2599 2550 2530 2484 2422 2412 2366 2297 2270
3380 3367 3355 3342 3324 3302 3287 3258 3241 3222 3184 3168 3154 3120 3103 3087 3065 3057 3051 3056 3063 3071 3100 3119 3135 3163 3181 3224 3246 3268 3312 3337 3361 3405 3428 3454 3509 3533 3555 3593 3621 3639 3714 3711 3732 3769 3791 3815 3863 3897 3889 3963 3983 4014 4071 4101 4159 4187 4217 4275 4306 4339 4408 4441 4472 4537 4570 4602 4669 4705 4742 4822 4834 4872 4922 4946 4973 5027 5052 5074 5113 5130 5160 5173 5183 5187 5191 5201 5209 5207 5202 5190 5187 5187 5188 5189 5193 5208 5219 5229 5248 5260 5275 5304 5318 5330 5362 5380 5408 5421 5435 5468 5485 5502 5535 5551 5566 5596 5620 5644 5676 5684 5693 5721 5737 5751 5776 5793 5802 5829 5845 5861 5893 5909 5915 5959 5979 6023 6048 6074 6102 6099 6097 6025 5980 5931 5827 5789 5759 5692 5656 5621 5533 5503 5449 5366 5331 5308 5286 5287 5298 5353 5386 5450 5484 5527 5618 5671 5726 5835 5889 5944 6056 6105 6142 6171 6164 6150 6124 6114 6105 6092 6086 6083 6085 6088 6092 6105 6114 6120 6133 6138 6147 6151 6146 6151 6153 6153 6150 6147 6145 6142 6142 6142 6135 6130 6125 6110 6103 6096 6074 6059 6047 6018 6012 6004 5974 5956 5918 5900 5881 5840 5818 5793 5750 5734 5719 5674 5653 5631 5587 5562 5536 5480 5451 5422 5367 5338 5309 5243 5210 5171 5109 5081 5002 4967 4931 4859 4826 4790 4715 4684 4652 4585 4555 4513 4467 4442 4418 4385 4382 4384 4381 4380 4373 4356 4351 4330 4291 4268 4244 4197 4172 4123 4098 4073 4006 3989 3957 3890 3861 3833 3777 3748 3716 3655 3625 3595 3542 3519 3493 3432 3400 3370 3311 3290 3265 3203 3163 3125 3099 3072 3017 2989 2958 2900 2875 2846 2788 2761 2732 2669 2637 2608 2558 2541 2495 2436 2418 2370 2303 2275
3374 3362 3349 3337 3316 3302 3288 3257 3241 3223 3190 3174 3156 3121 3108 3098 3081 3075 3073 3080 3086 3093 3119 3140 3159 3189 3206 3250 3273 3295 3344 3369 3392 3436 3459 3485 3540 3564 3586 3625 3650 3672 3747 3744 3765 3804 3826 3850 3899 3924 3925 4000 4019 4050 4105 4133 4189 4217 4246 4305 4334 4365 4433 4465 4494 4556 4592 4626 4690 4723 4763 4826 4838 4877 4932 4957 4983 5038 5061 5081 5116 5133 5161 5173 5181 5181 5188 5198 5207 5206 5202 5193 5190 5187 5188 5194 5198 5210 5221 5232 5249 5263 5277 5305 5317 5330 5364 5382 5410 5424 5436 5467 5487 5503 5534 5550 5565 5595 5616 5637 5666 5672 5682 5709 5723 5735 5761 5775 5785 5815 5830 5844 5872 5889 5898 5940 5959 6001 6027 6054 6084 6078 6075 6013 5973 5926 5832 5798 5771 5713 5684 5653 5583 5512 5504 5418 5384 5359 5333 5329 5338 5391 5425 5491 5529 5572 5660 5709 5759 5862 5915 5969 6076 6119 6151 6166 6157 6146 6126 6114 6104 6093 6087 6082 6087 6093 6097 6109 6121 6125 6140 6144 6154 6155 6153 6159 6160 6158 6154 6152 6149 6143 6139 6136 6125 6119 6114 6102 6095 6087 6063 6050 6039 6016 6008 5995 5967 5951 5913 5896 5880 5843 5822 5802 5761 5735 5721 5677 5655 5634 5587 5563 5539 5488 5457 5427 5372 5345 5316 5249 5216 5176 5115 5080 5009 4974 4939 4867 4832 4797 4723 4691 4659 4594 4566 4514 4474 4449 4426 4396 4391 4393 4390 4387 4378 4363 4350 4341 4299 4276 4252 4203 4179 4132 4108 4081 4025 3995 3963 3900 3870 3839 3783 3755 3723 3661 3630 3600 3545 3520 3494 3437 3409 3379 3319 3295 3267 3209 3176 3135 3109 3082 3022 2994 2965 2910 2886 2859 2796 2768 2740 2682 2651 2619 2564 2546 2504 2449 2427 2380 2314 2283
3369 3358 3348 3338 3315 3301 3288 3257 3240 3223 3192 3176 3157 3126 3118 3111 3100 3098 3100 3110 3114 3120 3144 3166 3186 3220 3238 3281 3303 3326 3377 3400 3423 3470 3495 3520 3571 3595 3618 3667 3685 3706 3776 3774 3794 3843 3862 3886 3935 3967 3980 4038 4051 4087 4137 4163 4218 4244 4271 4333 4362 4390 4454 4486 4515 4576 4611 4647 4710 4742 4774 4831 4846 4883 4944 4972 4999 5050 5071 5089 5121 5137 5162 5172 5181 5191 5197 5203 5205 5203 5200 5190 5188 5185 5187 5194 5201 5213 5224 5233 5251 5262 5275 5300 5314 5328 5362 5378 5409 5423 5435 5462 5481 5499 5530 5545 5559 5589 5606 5623 5649 5659 5672 5698 5709 5719 5743 5758 5770 5801 5816 5828 5854 5878 5885 5921 5939 5979 6004 6030 6063 6063 6065 6006 5968 5924 5843 5817 5792 5741 5716 5689 5619 5586 5553 5478 5448 5425 5398 5392 5395 5432 5462 5532 5575 5624 5704 5750 5796 5893 5944 5997 6096 6131 6150 6150 6143 6135 6123 6114 6103 6090 6086 6081 6087 6095 6100 6112 6126 6133 6147 6150 6159 6163 6160 6171 6169 6165 6162 6161 6158 6148 6142 6137 6124 6116 6111 6099 6090 6077 6051 6039 6028 6005 5996 5985 5959 5946 5913 5895 5880 5845 5825 5805 5766 5734 5722 5680 5658 5636 5588 5563 5541 5494 5465 5434 5379 5352 5322 5251 5218 5185 5119 5085 5018 4985 4949 4874 4837 4801 4731 4701 4670 4608 4579 4528 4490 4465 4444 4416 4409 4405 4401 4397 4388 4376 4366 4350 4305 4282 4259 4207 4184 4142 4117 4089 4030 3999 3968 3915 3881 3849 3789 3762 3730 3669 3639 3608 3549 3523 3497 3444 3417 3388 3330 3302 3271 3220 3184 3139 3115 3086 3024 2998 2974 2920 2897 2872 2804 2775 2748 2693 2662 2631 2576 2557 2514 2452 2429 2391 2329 2295
3371 3356 3346 3337 3322 3304 3290 3261 3245 3227 3195 3179 3162 3139 3132 3126 3121 3123 3128 3140 3146 3153 3174 3194 3215 3251 3271 3312 3335 3359 3407 3429 3451 3501 3527 3553 3603 3626 3651 3696 3717 3737 3808 3809 3825 3874 3897 3921 3971 4003 4011 4074 4086 4120 4167 4192 4245 4272 4300 4364 4394 4421 4480 4510 4539 4600 4632 4664 4728 4757 4769 4847 4868 4900 4956 4983 5009 5055 5077 5095 5124 5140 5163 5170 5179 5195 5200 5201 5199 5199 5196 5188 5184 5181 5186 5194 5202 5216 5224 5232 5250 5261 5273 5299 5311 5325 5355 5370 5402 5417 5430 5457 5475 5492 5521 5535 5549 5579 5592 5606 5633 5646 5660 5684 5694 5705 5728 5740 5754 5784 5799 5811 5838 5858 5867 5907 5925 5963 5988 6014 6045 6045 6044 6007 5971 5927 5857 5835 5816 5772 5751 5726 5671 5623 5599 5538 5484 5496 5470 5464 5464 5488 5511 5578 5627 5681 5750 5793 5837 5928 5978 6029 6114 6135 6140 6127 6122 6118 6114 6109 6100 6085 6082 6081 6088 6096 6102 6115 6133 6135 6151 6155 6164 6166 6166 6175 6174 6171 6166 6167 6164 6152 6146 6139 6125 6118 6110 6095 6086 6073 6048 6036 6025 5998 5985 5973 5948 5936 5909 5895 5882 5847 5827 5807 5770 5742 5731 5684 5663 5643 5596 5572 5548 5500 5473 5444 5386 5358 5327 5259 5227 5197 5125 5090 5028 4995 4959 4883 4847 4811 4744 4714 4685 4627 4598 4545 4513 4492 4474 4444 4432 4425 4414 4410 4401 4388 4374 4359 4312 4288 4265 4215 4193 4151 4127 4100 4038 4006 3975 3918 3888 3856 3795 3770 3740 3676 3645 3617 3557 3530 3503 3453 3423 3402 3345 3314 3282 3230 3193 3143 3118 3090 3030 3004 2978 2924 2901 2876 2813 2785 2759 2701 2671 2641 2584 2564 2521 2458 2436 2402 2342 2307
3378 3360 3350 3341 3320 3309 3296 3267 3253 3238 3208 3192 3179 3162 3154 3148 3146 3150 3155 3170 3180 3189 3208 3225 3244 3283 3303 3343 3365 3389 3436 3459 3483 3530 3556 3583 3636 3660 3683 3730 3750 3770 3843 3847 3860 3913 3936 3958 4006 4037 4056 4107 4120 4152 4197 4222 4275 4302 4332 4398 4425 4453 4510 4537 4565 4624 4650 4679 4743 4770 4799 4867 4889 4918 4966 4990 5011 5053 5075 5094 5122 5139 5165 5169 5175 5187 5190 5191 5190 5191 5191 5186 5182 5178 5183 5190 5197 5214 5221 5229 5247 5259 5271 5295 5306 5319 5348 5363 5395 5410 5424 5450 5465 5481 5513 5527 5539 5567 5580 5590 5613 5630 5646 5669 5680 5692 5713 5727 5739 5768 5782 5794 5825 5840 5855 5899 5917 5955 5981 6008 6041 6052 6049 6019 5988 5948 5885 5862 5842 5808 5792 5771 5726 5649 5656 5583 5583 5567 5544 5539 5540 5557 5575 5632 5680 5735 5797 5839 5882 5970 6016 6061 6126 6137 6133 6111 6105 6104 6102 6100 6094 6080 6080 6083 6090 6096 6103 6119 6135 6139 6155 6161 6171 6167 6174 6177 6178 6177 6171 6169 6167 6158 6152 6143 6128 6120 6108 6090 6083 6073 6049 6037 6022 5984 5972 5964 5941 5930 5906 5896 5884 5852 5834 5814 5776 5748 5742 5693 5672 5652 5605 5581 5557 5508 5481 5454 5397 5365 5332 5271 5240 5198 5134 5099 5039 5008 4972 4894 4858 4825 4759 4728 4701 4649 4621 4580 4539 4522 4506 4474 4460 4451 4449 4426 4418 4402 4397 4371 4322 4299 4275 4225 4203 4159 4135 4108 4044 4012 3982 3921 3895 3861 3804 3779 3750 3683 3653 3626 3570 3541 3515 3462 3427 3412 3357 3324 3293 3239 3205 3150 3124 3098 3037 3007 2977 2922 2897 2872 2822 2797 2770 2708 2677 2647 2586 2566 2527 2468 2448 2412 2351 2316
3387 3372 3362 3352 3341 3316 3303 3279 3266 3253 3229 3216 3206 3191 3181 3175 3175 3179 3183 3202 3214 3226 3246 3260 3275 3312 3334 3374 3397 3420 3466 3491 3518 3566 3590 3616 3671 3696 3718 3764 3784 3806 3882 3888 3899 3951 3975 3996 4041 4070 4091 4136 4153 4185 4230 4254 4306 4334 4364 4424 4452 4480 4536 4561 4587 4645 4669 4695 4757 4786 4816 4881 4905 4931 4971 4993 5015 5052 5072 5092 5119 5135 5164 5170 5174 5181 5182 5183 5183 5185 5186 5177 5174 5172 5179 5183 5189 5204 5212 5222 5242 5252 5263 5287 5299 5313 5340 5353 5387 5403 5419 5444 5457 5473 5507 5522 5533 5556 5570 5582 5602 5620 5637 5656 5667 5681 5700 5710 5728 5756 5769 5783 5817 5832 5847 5890 5909 5951 5976 6005 6042 6060 6061 6041 6019 5989 5937 5912 5887 5856 5843 5824 5783 5759 5715 5672 5652 5640 5619 5614 5615 5633 5648 5696 5731 5788 5852 5892 5932 6016 6055 6088 6130 6135 6130 6105 6097 6092 6087 6086 6084 6079 6082 6087 6094 6099 6105 6124 6137 6143 6162 6167 6177 6179 6181 6184 6184 6183 6178 6175 6171 6161 6155 6145 6131 6123 6110 6089 6083 6073 6049 6035 6018 5980 5973 5962 5942 5931 5914 5903 5889 5859 5843 5824 5785 5754 5744 5706 5684 5662 5614 5590 5568 5519 5491 5463 5408 5375 5342 5281 5250 5213 5147 5114 5051 5020 4984 4908 4873 4841 4777 4747 4719 4670 4642 4611 4563 4547 4532 4501 4488 4477 4470 4443 4435 4417 4410 4385 4335 4313 4289 4238 4215 4166 4140 4111 4050 4020 3990 3931 3903 3870 3814 3789 3760 3694 3662 3634 3580 3553 3526 3470 3437 3416 3361 3331 3301 3249 3213 3162 3135 3107 3042 3009 2978 2920 2894 2870 2824 2800 2775 2714 2684 2655 2598 2580 2536 2474 2453 2421 2358 2325
3393 3387 3379 3367 3340 3327 3317 3297 3286 3274 3253 3243 3234 3219 3211 3204 3208 3212 3218 3238 3249 3260 3285 3298 3310 3345 3366 3407 3430 3453 3499 3524 3551 3602 3625 3651 3705 3730 3750 3806 3821 3842 3914 3921 3939 3987 4012 4034 4078 4106 4115 4170 4187 4216 4264 4289 4336 4363 4392 4447 4476 4504 4558 4581 4604 4661 4689 4713 4768 4797 4828 4892 4908 4939 4972 4993 5014 5051 5070 5089 5117 5129 5150 5159 5167 5174 5175 5175 5176 5177 5175 5166 5164 5165 5171 5174 5179 5193 5200 5210 5232 5242 5253 5279 5292 5305 5332 5345 5378 5394 5409 5436 5450 5466 5494 5508 5521 5545 5561 5574 5594 5609 5625 5643 5655 5669 5693 5700 5718 5746 5761 5776 5810 5824 5839 5881 5901 5947 5971 5996 6040 6069 6072 6067 6056 6037 5996 5972 5947 5912 5898 5880 5817 5830 5782 5743 5728 5714 5696 5690 5691 5711 5721 5760 5792 5852 5908 5945 5983 6058 6086 6107 6125 6125 6119 6099 6088 6080 6073 6074 6076 6079 6083 6087 6097 6103 6109 6129 6139 6147 6169 6174 6182 6188 6189 6191 6190 6189 6185 6181 6175 6162 6154 6146 6132 6123 6112 6093 6086 6077 6051 6035 6018 5985 5982 5971 5952 5944 5925 5911 5896 5864 5849 5832 5795 5762 5751 5716 5695 5672 5621 5597 5576 5529 5501 5472 5418 5386 5355 5294 5264 5222 5164 5132 5067 5035 5001 4926 4891 4860 4797 4767 4741 4692 4664 4631 4590 4574 4559 4530 4516 4504 4490 4462 4450 4426 4422 4398 4347 4325 4302 4253 4227 4172 4142 4114 4058 4029 4001 3935 3909 3878 3823 3795 3765 3701 3666 3637 3590 3563 3534 3475 3447 3418 3367 3339 3308 3257 3222 3174 3146 3114 3048 3015 2985 2931 2903 2877 2818 2792 2768 2717 2691 2663 2602 2588 2546 2484 2459 2426 2363 2331
3400 3399 3393 3382 3365 3349 3340 3323 3314 3303 3283 3275 3268 3255 3249 3244 3249 3253 3259 3276 3285 3296 3323 3337 3350 3383 3405 3448 3469 3491 3538 3562 3586 3637 3663 3688 3737 3762 3783 3847 3851 3880 3950 3958 3980 4026 4047 4072 4120 4147 4172 4214 4222 4254 4301 4325 4369 4395 4423 4475 4502 4531 4582 4604 4626 4676 4703 4729 4781 4808 4848 4897 4914 4940 4969 4987 5009 5047 5064 5091 5112 5121 5138 5146 5155 5162 5164 5164 5165 5165 5162 5154 5154 5155 5161 5165 5171 5184 5190 5199 5220 5231 5243 5270 5284 5298 5327 5339 5366 5382 5398 5428 5443 5458 5485 5498 5511 5536 5549 5560 5578 5590 5605 5628 5640 5653 5680 5691 5709 5738 5753 5769 5801 5817 5832 5870 5890 5939 5962 5984 6030 6069 6078 6092 6090 6082 6055 6035 6015 5980 5966 5949 5906 5899 5849 5818 5803 5790 5774 5770 5772 5795 5809 5849 5879 5916 5968 6002 6036 6092 6106 6113 6115 6112 6106 6085 6074 6067 6065 6069 6072 6075 6077 6080 6093 6102 6109 6129 6142 6147 6168 6175 6186 6192 6190 6196 6197 6196 6191 6185 6178 6163 6157 6150 6133 6124 6114 6100 6094 6085 6058 6042 6027 5992 5988 5985 5964 5955 5933 5918 5902 5872 5857 5840 5804 5774 5758 5719 5701 5680 5628 5605 5583 5535 5508 5480 5425 5396 5368 5311 5279 5237 5182 5152 5087 5053 5018 4946 4912 4881 4822 4793 4768 4719 4692 4664 4624 4606 4588 4558 4545 4532 4514 4486 4471 4443 4432 4409 4358 4337 4315 4265 4236 4178 4149 4121 4064 4035 4006 3937 3913 3884 3830 3800 3768 3706 3675 3649 3604 3575 3542 3480 3457 3424 3378 3349 3316 3260 3221 3181 3152 3120 3058 3026 2998 2948 2921 2889 2815 2786 2761 2718 2696 2668 2606 2592 2557 2495 2471 2428 2368 2336
3409 3411 3405 3396 3378 3372 3368 3354 3344 3332 3313 3308 3305 3296 3290 3286 3292 3295 3300 3314 3323 3334 3360 3373 3387 3420 3442 3487 3508 3529 3577 3600 3623 3677 3704 3726 3772 3797 3822 3871 3886 3919 3983 3995 4017 4053 4082 4106 4162 4187 4224 4251 4257 4291 4336 4359 4404 4428 4454 4504 4530 4557 4606 4628 4650 4697 4720 4745 4794 4819 4857 4901 4914 4938 4971 4989 5007 5042 5060 5086 5105 5114 5132 5141 5147 5146 5146 5149 5151 5149 5146 5137 5135 5136 5145 5151 5156 5170 5180 5191 5207 5217 5228 5256 5272 5288 5316 5329 5354 5369 5386 5420 5435 5447 5476 5491 5502 5528 5540 5548 5562 5575 5589 5611 5623 5636 5662 5676 5697 5728 5742 5756 5790 5812 5824 5854 5877 5926 5948 5970 6015 6051 6063 6102 6110 6114 6107 6096 6082 6051 6035 6020 5968 5966 5906 5888 5849 5867 5854 5851 5854 5876 5891 5932 5942 5983 6030 6059 6086 6116 6117 6113 6104 6100 6095 6072 6064 6060 6061 6065 6068 6071 6074 6077 6092 6100 6108 6127 6145 6149 6166 6174 6188 6193 6197 6201 6202 6202 6196 6188 6181 6168 6161 6155 6138 6128 6119 6106 6100 6094 6069 6055 6042 6008 6002 5999 5980 5969 5945 5929 5914 5883 5867 5850 5813 5782 5770 5721 5703 5683 5638 5616 5594 5544 5518 5493 5437 5408 5381 5323 5292 5254 5199 5168 5103 5069 5035 4967 4934 4904 4850 4823 4797 4748 4723 4697 4659 4639 4615 4580 4569 4550 4534 4511 4494 4460 4443 4423 4369 4347 4324 4274 4245 4188 4160 4130 4069 4039 4011 3952 3919 3891 3837 3805 3772 3715 3688 3664 3612 3582 3549 3488 3464 3432 3387 3356 3321 3263 3221 3183 3157 3128 3071 3042 3013 2961 2933 2902 2825 2791 2763 2721 2697 2670 2611 2596 2564 2500 2471 2435 2376 2345
3419 3427 3422 3415 3408 3395 3393 3383 3373 3360 3342 3339 3338 3332 3325 3321 3329 3333 3336 3348 3359 3370 3394 3407 3422 3457 3477 3519 3541 3564 3611 3634 3658 3715 3741 3762 3807 3833 3858 3904 3923 3954 4024 4031 4052 4093 4119 4143 4198 4216 4239 4277 4290 4320 4365 4388 4433 4455 4479 4531 4555 4580 4629 4650 4673 4718 4740 4762 4805 4828 4855 4900 4915 4938 4975 4993 5008 5037 5054 5079 5095 5105 5123 5131 5136 5129 5125 5127 5132 5130 5127 5123 5121 5121 5128 5133 5137 5152 5164 5177 5192 5201 5212 5239 5255 5271 5302 5317 5345 5358 5373 5408 5424 5437 5465 5479 5490 5515 5527 5537 5554 5567 5580 5599 5610 5623 5650 5664 5680 5712 5728 5744 5780 5798 5814 5845 5869 5916 5937 5958 6000 6033 6046 6099 6116 6129 6145 6143 6137 6112 6097 6083 6036 6040 5980 5989 5954 5946 5932 5929 5930 5949 5963 6000 6028 6042 6086 6106 6122 6128 6121 6113 6096 6089 6082 6067 6063 6060 6057 6058 6059 6064 6069 6076 6092 6100 6107 6128 6149 6156 6169 6176 6189 6198 6199 6202 6201 6201 6196 6189 6182 6171 6165 6159 6142 6131 6123 6112 6107 6100 6079 6067 6057 6026 6017 6015 5995 5983 5958 5943 5928 5893 5876 5859 5825 5795 5779 5730 5712 5692 5645 5624 5602 5556 5532 5507 5451 5420 5393 5335 5306 5278 5212 5180 5118 5084 5050 4989 4957 4927 4876 4850 4825 4781 4758 4728 4689 4668 4645 4608 4594 4572 4554 4529 4511 4474 4465 4440 4378 4353 4328 4279 4254 4197 4166 4136 4072 4043 4016 3956 3944 3900 3843 3811 3778 3721 3694 3667 3614 3587 3559 3500 3469 3443 3391 3358 3324 3262 3212 3186 3161 3133 3080 3052 3023 2968 2941 2911 2838 2807 2777 2729 2703 2672 2615 2601 2567 2504 2480 2441 2380 2350
3429 3439 3436 3432 3424 3418 3413 3403 3397 3390 3378 3374 3370 3363 3359 3356 3364 3368 3371 3383 3395 3406 3430 3444 3459 3496 3516 3555 3576 3599 3647 3670 3692 3746 3773 3796 3843 3867 3893 3952 3960 3990 4057 4068 4087 4135 4158 4183 4225 4247 4278 4304 4326 4349 4394 4416 4458 4478 4502 4554 4577 4600 4650 4673 4694 4733 4751 4772 4818 4841 4865 4901 4917 4941 4977 4995 5011 5036 5051 5072 5084 5092 5109 5117 5121 5111 5105 5107 5113 5108 5104 5101 5100 5100 5110 5116 5122 5138 5150 5162 5177 5186 5199 5224 5239 5254 5286 5304 5338 5354 5368 5400 5416 5430 5455 5468 5477 5497 5509 5521 5545 5558 5570 5590 5602 5614 5642 5651 5667 5701 5720 5737 5773 5790 5804 5839 5863 5909 5929 5950 5987 6014 6030 6089 6112 6131 6163 6173 6176 6165 6155 6143 6106 6115 6065 6064 6028 6021 6010 6008 6010 6022 6036 6068 6094 6105 6136 6145 6149 6137 6125 6114 6092 6082 6073 6064 6062 6058 6050 6049 6050 6055 6062 6071 6090 6098 6104 6126 6147 6153 6171 6178 6190 6201 6199 6199 6197 6198 6194 6188 6182 6174 6170 6164 6146 6136 6129 6121 6116 6108 6086 6074 6065 6048 6033 6028 6007 5995 5969 5955 5940 5904 5887 5868 5835 5807 5792 5744 5726 5704 5653 5630 5608 5563 5539 5513 5461 5433 5406 5350 5323 5300 5230 5198 5136 5102 5069 5011 4981 4953 4903 4878 4855 4813 4788 4754 4718 4699 4678 4639 4620 4591 4568 4544 4525 4485 4474 4453 4387 4360 4333 4284 4259 4201 4170 4139 4076 4046 4020 3961 3947 3910 3850 3818 3785 3725 3697 3670 3622 3597 3570 3511 3477 3453 3395 3363 3329 3268 3215 3191 3166 3139 3084 3056 3030 2975 2945 2913 2848 2821 2792 2738 2709 2678 2618 2605 2566 2512 2488 2440 2383 2357
3440 3445 3445 3446 3446 3440 3435 3425 3422 3420 3414 3408 3400 3392 3391 3390 3397 3402 3406 3421 3431 3442 3465 3481 3497 3534 3554 3592 3614 3638 3684 3706 3727 3776 3803 3831 3879 3902 3926 3976 3992 4029 4096 4104 4125 4186 4194 4219 4260 4279 4301 4332 4348 4376 4418 4439 4481 4503 4526 4571 4592 4615 4669 4690 4710 4744 4761 4781 4828 4851 4873 4906 4922 4941 4978 4997 5012 5036 5048 5063 5073 5077 5094 5102 5105 5098 5095 5096 5094 5088 5084 5079 5078 5080 5091 5098 5104 5119 5130 5140 5158 5171 5184 5211 5225 5240 5272 5290 5328 5346 5361 5389 5403 5416 5442 5453 5463 5485 5497 5507 5531 5543 5556 5580 5593 5605 5630 5641 5656 5696 5714 5733 5767 5784 5796 5834 5858 5907 5926 5943 5977 6006 6019 6078 6101 6125 6167 6184 6196 6204 6201 6194 6175 6187 6149 6138 6102 6093 6086 6085 6086 6094 6106 6134 6178 6170 6175 6173 6167 6146 6130 6114 6090 6080 6071 6060 6057 6054 6046 6044 6045 6052 6058 6068 6090 6096 6102 6124 6143 6151 6168 6175 6192 6201 6201 6201 6199 6200 6197 6191 6184 6179 6176 6169 6151 6142 6134 6126 6122 6116 6095 6081 6071 6057 6044 6041 6017 6005 5979 5964 5949 5913 5896 5878 5842 5809 5804 5759 5738 5715 5664 5641 5619 5570 5544 5516 5469 5444 5419 5366 5338 5311 5252 5221 5157 5123 5091 5034 5007 4980 4931 4908 4885 4840 4813 4780 4747 4726 4706 4666 4643 4609 4589 4563 4542 4498 4485 4465 4398 4368 4339 4288 4264 4207 4177 4147 4084 4054 4028 3969 3953 3916 3854 3823 3792 3737 3708 3681 3632 3605 3578 3518 3486 3460 3398 3368 3337 3278 3236 3197 3172 3145 3088 3059 3033 2977 2947 2917 2856 2830 2801 2741 2714 2686 2626 2614 2571 2516 2495 2443 2386 2362
3449 3459 3461 3463 3469 3461 3459 3453 3450 3449 3444 3438 3430 3426 3425 3426 3430 3435 3441 3458 3469 3478 3502 3520 3536 3571 3590 3628 3650 3675 3722 3743 3765 3812 3841 3868 3914 3936 3961 4018 4030 4067 4128 4139 4160 4206 4229 4250 4286 4308 4326 4358 4384 4399 4441 4462 4505 4526 4547 4588 4610 4634 4686 4706 4722 4755 4773 4793 4836 4856 4877 4910 4922 4939 4974 4991 5006 5028 5038 5052 5060 5064 5077 5084 5087 5082 5080 5080 5075 5072 5071 5063 5060 5061 5072 5078 5083 5094 5100 5109 5134 5147 5160 5190 5205 5222 5257 5273 5305 5325 5345 5374 5388 5402 5427 5439 5449 5474 5486 5495 5515 5529 5543 5570 5584 5595 5622 5632 5649 5685 5703 5722 5760 5780 5791 5829 5851 5900 5919 5935 5971 5996 6008 6070 6092 6113 6160 6182 6200 6219 6224 6226 6219 6225 6200 6210 6177 6169 6156 6156 6158 6165 6173 6192 6222 6211 6198 6187 6175 6149 6131 6112 6085 6075 6066 6055 6051 6049 6042 6039 6041 6049 6053 6061 6086 6094 6101 6125 6141 6145 6162 6171 6190 6196 6199 6200 6202 6206 6205 6198 6191 6187 6182 6174 6157 6148 6138 6127 6124 6122 6108 6096 6085 6070 6052 6050 6026 6027 5987 5971 5956 5922 5905 5889 5851 5832 5820 5771 5748 5726 5678 5654 5632 5583 5556 5528 5478 5452 5427 5377 5350 5323 5269 5239 5178 5145 5115 5059 5033 5007 4958 4934 4910 4861 4836 4809 4773 4752 4731 4690 4667 4635 4608 4583 4560 4515 4493 4475 4412 4382 4351 4297 4270 4213 4184 4155 4093 4064 4036 3974 3956 3920 3857 3828 3798 3747 3721 3695 3641 3612 3583 3527 3498 3472 3407 3378 3349 3294 3250 3204 3177 3150 3093 3064 3035 2977 2951 2923 2862 2836 2806 2744 2716 2690 2632 2618 2575 2523 2496 2451 2392 2365
3456 3474 3478 3481 3491 3485 3484 3480 3479 3477 3473 3469 3464 3462 3462 3462 3466 3471 3478 3493 3503 3513 3538 3557 3574 3610 3627 3664 3686 3710 3757 3780 3804 3852 3879 3905 3946 3969 3995 4063 4072 4100 4161 4171 4191 4234 4259 4275 4313 4326 4350 4383 4409 4422 4466 4488 4529 4547 4565 4604 4628 4653 4701 4719 4735 4767 4784 4802 4838 4857 4876 4912 4923 4936 4966 4982 4996 5013 5020 5035 5042 5049 5059 5065 5065 5051 5050 5056 5055 5053 5052 5044 5037 5036 5048 5054 5057 5068 5073 5081 5109 5123 5135 5163 5178 5197 5239 5255 5287 5307 5328 5361 5377 5392 5418 5431 5441 5467 5481 5491 5512 5524 5536 5564 5579 5589 5612 5631 5647 5676 5693 5711 5750 5769 5783 5823 5842 5888 5908 5926 5964 5985 5996 6061 6082 6103 6147 6170 6189 6214 6226 6237 6244 6257 6246 6255 6269 6235 6224 6222 6222 6226 6229 6231 6236 6231 6206 6190 6175 6148 6130 6111 6083 6072 6064 6051 6046 6043 6037 6035 6037 6045 6046 6054 6081 6090 6097 6123 6137 6140 6154 6164 6184 6193 6188 6197 6202 6206 6207 6203 6197 6189 6183 6177 6161 6151 6142 6133 6128 6126 6122 6113 6102 6085 6066 6057 6034 6024 5997 5981 5966 5932 5916 5899 5862 5843 5834 5782 5759 5738 5693 5669 5645 5595 5568 5539 5486 5460 5436 5386 5359 5330 5279 5251 5193 5164 5136 5083 5057 5031 4980 4956 4932 4881 4857 4836 4796 4775 4755 4713 4689 4648 4621 4600 4576 4528 4497 4487 4425 4396 4366 4307 4279 4221 4192 4162 4102 4073 4045 3981 3959 3926 3864 3835 3805 3754 3730 3704 3650 3623 3595 3540 3508 3484 3418 3390 3362 3305 3263 3214 3186 3156 3096 3068 3037 2980 2952 2924 2863 2838 2811 2746 2715 2691 2638 2622 2580 2528 2500 2457 2404 2373
3463 3484 3490 3495 3508 3512 3511 3507 3505 3503 3501 3501 3499 3499 3498 3498 3505 3509 3514 3530 3540 3549 3573 3591 3610 3648 3666 3701 3722 3745 3792 3816 3842 3890 3914 3938 3980 4002 4028 4098 4103 4130 4190 4200 4217 4258 4282 4299 4334 4355 4370 4410 4433 4449 4492 4512 4549 4567 4585 4622 4644 4667 4713 4729 4743 4776 4792 4806 4835 4851 4867 4908 4918 4926 4954 4969 4981 4996 5000 5018 5022 5029 5035 5042 5044 5025 5025 5033 5032 5029 5029 5021 5016 5014 5023 5026 5028 5039 5045 5054 5083 5100 5115 5143 5158 5178 5220 5237 5273 5295 5318 5353 5368 5384 5413 5425 5437 5465 5478 5489 5512 5521 5531 5560 5576 5588 5605 5629 5644 5672 5690 5710 5746 5766 5782 5820 5835 5878 5899 5919 5956 5977 5987 6050 6071 6091 6133 6153 6171 6204 6220 6233 6255 6263 6266 6280 6278 6278 6271 6268 6264 6262 6257 6245 6232 6225 6199 6184 6171 6145 6130 6114 6088 6079 6069 6052 6043 6039 6033 6030 6034 6042 6045 6053 6080 6088 6094 6115 6131 6137 6148 6156 6174 6181 6180 6193 6201 6205 6206 6205 6202 6193 6187 6180 6166 6156 6150 6142 6136 6132 6129 6122 6113 6092 6078 6065 6043 6033 6005 5991 5977 5943 5926 5909 5872 5854 5844 5792 5769 5747 5707 5683 5656 5605 5579 5550 5494 5469 5446 5396 5370 5342 5292 5265 5209 5180 5154 5102 5075 5048 5000 4977 4952 4899 4875 4853 4813 4795 4776 4733 4708 4675 4639 4617 4593 4543 4509 4498 4437 4407 4376 4317 4288 4230 4201 4171 4096 4084 4057 3989 3963 3932 3873 3845 3815 3761 3737 3712 3659 3633 3606 3548 3519 3492 3428 3398 3369 3312 3273 3222 3194 3164 3103 3073 3041 2981 2954 2925 2864 2839 2811 2748 2717 2694 2643 2627 2585 2521 2499 2461 2415 2385
3469 3492 3501 3508 3527 3533 3534 3530 3528 3527 3527 3529 3530 3536 3535 3535 3540 3544 3549 3568 3579 3588 3610 3627 3644 3684 3703 3738 3759 3780 3825 3850 3876 3922 3944 3969 4015 4037 4061 4131 4137 4162 4219 4226 4244 4286 4309 4325 4361 4380 4400 4436 4457 4477 4517 4534 4569 4587 4605 4641 4659 4679 4720 4735 4748 4783 4799 4811 4834 4848 4855 4898 4911 4918 4943 4955 4965 4982 4985 4997 5003 5005 5006 5013 5020 5012 5011 5015 5011 5010 5010 5001 4998 4996 4998 5000 5001 5011 5016 5024 5051 5071 5092 5127 5141 5158 5197 5216 5259 5284 5309 5345 5358 5375 5404 5417 5431 5464 5477 5485 5507 5518 5528 5558 5571 5584 5604 5626 5640 5670 5688 5708 5743 5762 5776 5816 5833 5870 5891 5913 5952 5972 5981 6039 6058 6079 6118 6135 6153 6191 6206 6220 6247 6257 6269 6273 6280 6283 6284 6282 6278 6269 6263 6244 6217 6208 6185 6174 6164 6141 6131 6120 6096 6086 6078 6055 6044 6037 6029 6027 6030 6039 6043 6052 6076 6087 6094 6108 6126 6134 6147 6152 6168 6172 6178 6194 6202 6207 6206 6206 6206 6202 6194 6186 6172 6165 6160 6150 6144 6138 6132 6127 6118 6097 6087 6074 6050 6040 6011 5997 5984 5953 5937 5919 5880 5860 5851 5801 5778 5756 5716 5694 5668 5617 5592 5564 5507 5481 5458 5407 5382 5358 5305 5280 5223 5195 5169 5120 5093 5067 5020 4996 4970 4919 4895 4875 4828 4812 4794 4748 4722 4692 4654 4630 4605 4551 4514 4506 4447 4417 4387 4327 4297 4237 4207 4178 4123 4094 4064 4001 3980 3941 3884 3856 3826 3769 3743 3717 3665 3639 3613 3555 3526 3498 3438 3409 3379 3319 3276 3226 3195 3166 3110 3080 3047 2985 2957 2927 2865 2838 2811 2757 2729 2703 2647 2628 2586 2526 2499 2462 2414 2385
3476 3499 3510 3520 3539 3546 3549 3550 3549 3550 3554 3555 3559 3569 3571 3572 3575 3580 3586 3604 3615 3625 3647 3664 3681 3719 3738 3774 3792 3813 3857 3881 3904 3949 3972 3998 4048 4071 4095 4151 4167 4191 4245 4251 4270 4313 4337 4349 4383 4396 4424 4461 4479 4499 4538 4555 4588 4605 4624 4655 4672 4688 4722 4736 4752 4788 4804 4816 4833 4846 4851 4888 4902 4914 4936 4944 4952 4968 4973 4982 4981 4981 4983 4991 4997 4996 4996 4996 4990 4986 4984 4977 4974 4972 4976 4978 4979 4989 4993 4999 5022 5041 5064 5105 5121 5137 5180 5203 5247 5272 5297 5334 5349 5365 5395 5410 5425 5459 5473 5481 5501 5513 5526 5552 5564 5575 5605 5623 5639 5667 5682 5699 5735 5755 5773 5811 5829 5865 5885 5907 5946 5964 5974 6030 6049 6070 6103 6117 6133 6173 6190 6205 6234 6244 6255 6254 6262 6265 6272 6274 6272 6264 6257 6236 6212 6202 6178 6167 6157 6136 6128 6121 6102 6093 6085 6063 6051 6043 6029 6024 6026 6035 6041 6049 6072 6084 6094 6107 6119 6124 6146 6150 6162 6171 6173 6190 6201 6207 6208 6207 6208 6203 6195 6182 6168 6166 6163 6153 6150 6146 6135 6129 6122 6109 6100 6092 6058 6048 6018 6002 5990 5959 5943 5927 5888 5868 5858 5809 5788 5765 5723 5701 5675 5625 5601 5576 5522 5494 5468 5417 5393 5375 5315 5281 5236 5209 5185 5138 5112 5085 5037 5012 4987 4939 4913 4894 4845 4828 4807 4759 4734 4701 4657 4635 4611 4558 4517 4507 4453 4426 4398 4337 4305 4246 4215 4185 4128 4098 4067 4009 3989 3951 3898 3868 3836 3779 3753 3728 3673 3646 3619 3564 3533 3506 3448 3418 3388 3326 3283 3230 3195 3166 3111 3082 3053 2993 2962 2929 2868 2842 2817 2765 2738 2710 2647 2629 2587 2534 2506 2465 2407 2376
3485 3509 3521 3532 3547 3555 3563 3570 3570 3573 3582 3583 3588 3600 3602 3603 3610 3617 3623 3637 3648 3659 3683 3700 3717 3755 3774 3808 3825 3845 3889 3911 3934 3979 4004 4029 4078 4100 4123 4176 4192 4218 4268 4276 4294 4335 4361 4371 4408 4422 4444 4480 4500 4515 4554 4570 4597 4611 4641 4662 4679 4696 4725 4739 4754 4787 4803 4816 4833 4844 4850 4878 4892 4909 4926 4931 4937 4950 4954 4961 4962 4963 4968 4973 4978 4978 4977 4975 4967 4963 4959 4950 4948 4946 4952 4956 4960 4968 4971 4978 5001 5018 5040 5086 5104 5121 5167 5191 5235 5258 5282 5322 5340 5359 5391 5406 5420 5450 5465 5477 5498 5509 5521 5545 5556 5568 5600 5619 5637 5664 5676 5690 5728 5754 5769 5806 5825 5864 5884 5904 5938 5961 5972 6026 6046 6063 6091 6105 6122 6161 6178 6192 6214 6223 6227 6235 6229 6250 6259 6261 6262 6254 6247 6227 6210 6198 6178 6168 6157 6134 6126 6121 6106 6099 6091 6071 6061 6051 6032 6024 6024 6035 6040 6046 6068 6078 6088 6106 6114 6120 6140 6143 6159 6168 6169 6182 6195 6204 6208 6210 6210 6201 6188 6173 6162 6164 6164 6157 6155 6153 6143 6136 6130 6114 6104 6099 6067 6055 6025 6009 5994 5962 5947 5932 5896 5884 5872 5817 5796 5772 5726 5705 5681 5631 5608 5587 5536 5507 5481 5430 5405 5382 5324 5299 5248 5223 5199 5151 5123 5097 5048 5023 4999 4954 4927 4907 4863 4843 4820 4771 4747 4706 4665 4641 4619 4564 4528 4515 4459 4434 4407 4344 4313 4254 4223 4194 4134 4103 4075 4019 3992 3960 3910 3878 3844 3790 3767 3742 3685 3655 3626 3569 3540 3511 3451 3422 3395 3334 3289 3238 3204 3172 3112 3083 3056 2995 2964 2930 2869 2846 2821 2765 2737 2709 2645 2628 2590 2539 2512 2467 2408 2377
3491 3517 3532 3544 3559 3568 3579 3590 3594 3599 3608 3610 3615 3628 3630 3633 3645 3652 3659 3672 3683 3695 3719 3736 3755 3790 3807 3841 3857 3875 3918 3943 3965 4014 4037 4061 4106 4128 4149 4204 4214 4247 4295 4307 4317 4365 4376 4393 4426 4436 4460 4495 4517 4530 4568 4584 4606 4617 4638 4665 4682 4698 4728 4744 4759 4788 4801 4815 4836 4846 4861 4874 4883 4899 4911 4916 4920 4929 4932 4940 4942 4946 4951 4955 4958 4958 4955 4953 4946 4943 4940 4932 4926 4921 4921 4926 4933 4937 4940 4951 4982 4998 5016 5061 5082 5102 5148 5174 5222 5245 5270 5314 5334 5352 5383 5397 5411 5440 5456 5470 5494 5507 5519 5542 5553 5567 5599 5616 5632 5660 5674 5690 5725 5754 5771 5804 5824 5865 5884 5902 5936 5958 5978 6022 6040 6053 6080 6099 6118 6153 6166 6178 6202 6208 6210 6215 6230 6237 6245 6248 6250 6243 6237 6222 6209 6202 6183 6173 6163 6139 6129 6122 6110 6103 6095 6077 6067 6058 6039 6030 6029 6042 6044 6047 6065 6073 6080 6101 6111 6116 6133 6139 6157 6174 6170 6182 6192 6200 6207 6211 6212 6203 6190 6176 6167 6169 6168 6160 6157 6155 6150 6145 6138 6117 6112 6100 6073 6068 6033 6016 6000 5965 5952 5939 5906 5889 5875 5825 5803 5779 5732 5711 5689 5639 5618 5598 5549 5523 5498 5446 5421 5389 5338 5312 5259 5233 5209 5158 5131 5105 5056 5029 5007 4967 4940 4917 4874 4853 4828 4781 4755 4720 4669 4651 4627 4569 4525 4525 4465 4439 4410 4348 4319 4261 4232 4202 4143 4113 4085 4026 4003 3971 3917 3884 3853 3803 3779 3753 3695 3664 3634 3576 3543 3516 3456 3426 3399 3341 3292 3247 3213 3178 3115 3087 3059 2997 2966 2933 2867 2843 2819 2764 2736 2709 2643 2630 2596 2537 2510 2472 2418 2389
3492 3514 3529 3544 3565 3579 3592 3607 3614 3623 3632 3634 3641 3657 3662 3667 3679 3686 3692 3709 3721 3731 3749 3767 3788 3820 3835 3870 3887 3905 3947 3971 3996 4045 4066 4086 4132 4154 4174 4222 4232 4258 4315 4321 4337 4376 4399 4412 4449 4460 4480 4511 4528 4546 4582 4595 4615 4628 4654 4674 4687 4701 4732 4748 4762 4789 4802 4815 4835 4844 4854 4873 4879 4882 4888 4897 4904 4911 4912 4922 4919 4923 4932 4935 4938 4938 4935 4932 4925 4921 4918 4912 4904 4893 4887 4892 4897 4902 4908 4922 4961 4978 4993 5036 5060 5082 5128 5154 5209 5235 5261 5307 5325 5343 5375 5389 5402 5432 5448 5462 5491 5504 5516 5542 5554 5568 5596 5614 5627 5657 5674 5690 5727 5754 5767 5803 5824 5865 5883 5899 5935 5954 5975 6015 6033 6048 6076 6092 6109 6143 6155 6166 6191 6196 6196 6204 6213 6221 6232 6236 6238 6235 6231 6219 6208 6201 6184 6174 6165 6144 6134 6127 6113 6103 6095 6080 6072 6063 6051 6043 6041 6051 6050 6050 6063 6069 6074 6094 6107 6112 6129 6138 6155 6165 6170 6185 6192 6196 6203 6208 6212 6207 6198 6188 6177 6175 6170 6159 6155 6151 6148 6145 6141 6124 6116 6107 6079 6066 6041 6026 6008 5972 5960 5949 5914 5894 5883 5833 5812 5789 5741 5719 5697 5653 5632 5612 5563 5538 5515 5463 5437 5406 5354 5328 5272 5244 5217 5166 5141 5116 5065 5039 5016 4975 4950 4933 4879 4857 4833 4784 4759 4729 4682 4657 4630 4572 4537 4523 4467 4441 4413 4352 4323 4267 4238 4210 4152 4121 4092 4034 4012 3979 3922 3892 3864 3813 3788 3760 3701 3671 3643 3587 3557 3528 3465 3431 3400 3344 3299 3254 3217 3182 3122 3095 3065 3005 2975 2943 2871 2845 2822 2768 2741 2715 2654 2639 2601 2531 2511 2474 2422 2395
3491 3513 3526 3540 3571 3586 3601 3620 3628 3638 3652 3657 3665 3685 3691 3698 3712 3717 3723 3744 3757 3766 3780 3797 3818 3848 3861 3895 3913 3932 3975 3997 4021 4069 4089 4109 4154 4174 4193 4244 4254 4277 4331 4343 4349 4392 4413 4430 4469 4477 4497 4522 4533 4552 4587 4599 4622 4634 4658 4681 4693 4706 4735 4747 4760 4783 4793 4805 4829 4837 4845 4859 4869 4866 4871 4879 4886 4894 4895 4901 4895 4899 4913 4916 4918 4921 4918 4914 4905 4901 4897 4889 4881 4871 4863 4865 4866 4874 4883 4899 4938 4956 4974 5020 5046 5070 5117 5143 5200 5228 5254 5299 5318 5336 5371 5384 5398 5428 5444 5457 5488 5500 5512 5538 5552 5567 5593 5611 5624 5656 5673 5688 5729 5751 5767 5802 5822 5862 5880 5898 5934 5951 5973 6013 6030 6046 6074 6085 6097 6129 6145 6157 6179 6181 6188 6191 6192 6209 6221 6224 6226 6226 6227 6216 6204 6199 6180 6171 6164 6147 6137 6129 6113 6105 6098 6084 6075 6068 6059 6055 6052 6054 6052 6049 6057 6065 6073 6091 6104 6109 6128 6134 6148 6162 6165 6182 6188 6191 6198 6201 6205 6208 6206 6201 6188 6182 6172 6156 6152 6147 6142 6143 6142 6126 6119 6113 6083 6068 6044 6029 6011 5979 5968 5954 5916 5897 5889 5840 5820 5798 5752 5727 5705 5667 5647 5626 5577 5552 5529 5480 5453 5426 5369 5345 5289 5258 5230 5180 5154 5129 5076 5051 5026 4980 4943 4939 4884 4859 4834 4786 4763 4731 4685 4659 4632 4574 4538 4536 4470 4444 4417 4360 4330 4275 4245 4216 4160 4126 4095 4029 4017 3984 3929 3902 3874 3819 3791 3763 3704 3675 3649 3596 3562 3530 3471 3439 3406 3346 3306 3257 3221 3188 3130 3102 3072 3011 2982 2952 2883 2855 2829 2774 2748 2721 2656 2640 2603 2540 2517 2474 2420 2392
3493 3522 3533 3546 3584 3593 3608 3629 3639 3650 3669 3679 3691 3709 3715 3723 3739 3744 3750 3772 3786 3797 3816 3833 3847 3873 3888 3921 3938 3956 3999 4019 4042 4087 4107 4128 4171 4188 4207 4262 4273 4295 4347 4356 4360 4402 4424 4439 4479 4488 4507 4527 4534 4551 4585 4602 4629 4640 4659 4683 4694 4706 4732 4745 4756 4773 4779 4789 4817 4828 4836 4847 4853 4859 4864 4868 4873 4879 4882 4875 4878 4882 4898 4901 4902 4904 4903 4899 4889 4886 4882 4865 4857 4852 4843 4840 4841 4849 4859 4876 4919 4939 4960 5007 5034 5061 5113 5140 5195 5222 5247 5291 5310 5329 5368 5382 5395 5427 5442 5454 5484 5497 5509 5536 5550 5563 5585 5608 5622 5655 5671 5685 5727 5749 5764 5800 5819 5857 5877 5896 5933 5946 5972 6011 6025 6039 6068 6081 6093 6122 6137 6149 6160 6169 6170 6181 6187 6193 6204 6208 6211 6214 6216 6211 6200 6193 6181 6175 6169 6152 6140 6129 6116 6110 6104 6088 6080 6073 6064 6061 6060 6058 6055 6052 6055 6063 6072 6089 6102 6105 6123 6127 6141 6160 6160 6176 6182 6186 6192 6194 6196 6202 6203 6204 6195 6188 6177 6156 6151 6146 6140 6140 6139 6127 6117 6114 6085 6072 6043 6027 6011 5987 5975 5959 5919 5898 5892 5845 5826 5805 5761 5738 5716 5676 5656 5636 5590 5566 5543 5497 5468 5435 5385 5360 5305 5274 5247 5195 5167 5140 5086 5061 5035 4986 4953 4947 4889 4863 4838 4792 4766 4733 4685 4662 4634 4577 4545 4536 4474 4447 4420 4365 4338 4285 4255 4224 4161 4127 4098 4036 4017 3991 3937 3910 3882 3821 3794 3767 3712 3684 3654 3595 3564 3532 3477 3448 3415 3349 3309 3256 3225 3194 3135 3106 3077 3014 2985 2956 2890 2861 2835 2779 2752 2725 2660 2644 2609 2539 2521 2478 2423 2392
3492 3524 3537 3549 3584 3600 3613 3638 3650 3664 3687 3700 3712 3730 3737 3744 3759 3765 3774 3794 3809 3823 3847 3862 3874 3896 3910 3945 3961 3978 4020 4040 4061 4108 4127 4147 4188 4206 4225 4274 4289 4304 4357 4365 4375 4408 4425 4441 4479 4492 4514 4534 4553 4557 4588 4605 4632 4641 4659 4682 4693 4703 4727 4739 4751 4771 4779 4788 4808 4816 4825 4836 4842 4852 4859 4862 4864 4870 4873 4856 4868 4870 4878 4884 4887 4889 4888 4885 4877 4873 4869 4850 4841 4838 4828 4824 4826 4834 4843 4861 4906 4927 4949 5000 5029 5056 5109 5134 5190 5218 5243 5285 5304 5322 5361 5379 5392 5421 5438 5450 5478 5495 5509 5536 5547 5559 5581 5606 5619 5653 5670 5687 5728 5747 5761 5799 5817 5854 5873 5893 5913 5942 5967 6005 6020 6034 6063 6076 6090 6117 6128 6137 6146 6151 6156 6167 6171 6175 6186 6193 6196 6201 6204 6203 6196 6193 6181 6178 6174 6156 6145 6134 6121 6116 6109 6093 6084 6078 6069 6069 6070 6067 6064 6061 6059 6062 6067 6086 6099 6100 6116 6123 6137 6154 6156 6171 6176 6179 6183 6185 6186 6190 6192 6192 6187 6180 6172 6155 6151 6147 6139 6137 6136 6127 6122 6121 6089 6077 6049 6033 6019 5996 5982 5966 5929 5914 5902 5853 5833 5811 5772 5752 5732 5687 5666 5645 5603 5578 5555 5507 5479 5445 5396 5362 5317 5290 5264 5210 5181 5151 5096 5070 5045 4994 4970 4956 4895 4870 4846 4796 4768 4734 4690 4666 4636 4578 4548 4542 4475 4449 4422 4367 4341 4293 4264 4232 4162 4131 4105 4046 4029 4000 3947 3920 3888 3827 3801 3775 3720 3690 3656 3595 3572 3542 3485 3455 3423 3356 3315 3259 3231 3202 3139 3111 3085 3022 2991 2962 2894 2864 2838 2783 2758 2730 2666 2648 2615 2546 2526 2485 2429 2397
3484 3519 3536 3551 3586 3599 3614 3646 3660 3675 3701 3712 3723 3745 3755 3763 3776 3785 3796 3818 3832 3846 3869 3884 3898 3920 3933 3965 3981 3997 4037 4057 4079 4128 4149 4170 4207 4226 4243 4286 4300 4309 4363 4371 4385 4422 4427 4443 4481 4492 4503 4538 4552 4565 4593 4605 4628 4640 4655 4680 4691 4701 4721 4732 4744 4767 4779 4789 4802 4814 4815 4825 4833 4841 4849 4852 4854 4859 4862 4847 4859 4858 4861 4869 4874 4878 4878 4877 4868 4864 4860 4844 4837 4834 4824 4819 4820 4833 4845 4861 4900 4920 4942 4997 5027 5053 5101 5129 5182 5210 5237 5284 5303 5320 5353 5373 5388 5414 5433 5448 5476 5491 5506 5530 5539 5553 5571 5605 5617 5650 5667 5688 5729 5744 5757 5799 5816 5851 5871 5891 5925 5944 5965 6002 6017 6033 6060 6072 6085 6108 6117 6125 6131 6137 6142 6153 6158 6160 6171 6177 6182 6190 6194 6196 6194 6191 6180 6179 6176 6160 6151 6142 6127 6118 6109 6094 6088 6082 6075 6074 6074 6066 6063 6062 6064 6063 6064 6081 6094 6100 6115 6123 6134 6149 6147 6163 6168 6168 6171 6173 6175 6178 6179 6177 6172 6166 6162 6154 6149 6143 6136 6135 6136 6131 6126 6125 6096 6084 6057 6043 6029 6001 5986 5971 5936 5923 5909 5861 5840 5818 5782 5765 5745 5702 5680 5657 5612 5588 5565 5516 5489 5457 5405 5379 5328 5302 5276 5223 5196 5167 5112 5086 5059 5006 4978 4969 4906 4881 4855 4801 4773 4739 4689 4668 4638 4585 4553 4542 4476 4452 4426 4373 4347 4295 4268 4239 4173 4146 4121 4062 4042 4008 3954 3926 3894 3838 3812 3784 3726 3697 3665 3607 3584 3552 3492 3462 3430 3363 3321 3266 3242 3212 3147 3119 3092 3027 2996 2967 2902 2873 2845 2787 2761 2735 2669 2652 2620 2558 2535 2498 2436 2403
3476 3517 3533 3548 3583 3599 3616 3654 3669 3684 3710 3718 3727 3757 3769 3777 3794 3806 3819 3842 3855 3868 3890 3905 3919 3943 3957 3986 4000 4015 4054 4074 4096 4146 4169 4187 4220 4237 4250 4291 4306 4319 4366 4374 4386 4417 4434 4445 4482 4493 4503 4539 4552 4562 4588 4601 4625 4637 4653 4676 4688 4698 4719 4730 4740 4760 4769 4777 4794 4808 4810 4820 4827 4832 4839 4842 4842 4844 4846 4839 4847 4846 4851 4857 4862 4867 4870 4871 4863 4859 4855 4842 4837 4834 4828 4824 4824 4842 4855 4869 4902 4920 4940 4995 5025 5051 5101 5130 5182 5207 5233 5281 5301 5320 5352 5368 5384 5410 5428 5444 5472 5485 5499 5522 5533 5549 5568 5600 5614 5647 5664 5688 5724 5739 5755 5796 5815 5852 5871 5891 5928 5945 5965 6001 6017 6032 6058 6070 6082 6099 6108 6116 6117 6124 6132 6145 6150 6152 6159 6165 6171 6176 6179 6188 6189 6185 6181 6179 6174 6163 6157 6148 6129 6120 6112 6097 6092 6087 6080 6077 6074 6066 6063 6062 6062 6062 6064 6078 6092 6096 6112 6121 6134 6140 6141 6152 6155 6156 6158 6162 6166 6168 6166 6163 6161 6160 6158 6149 6141 6135 6134 6136 6139 6136 6131 6127 6101 6086 6058 6046 6033 6002 5988 5975 5940 5929 5921 5868 5847 5826 5791 5773 5753 5713 5692 5668 5621 5599 5577 5525 5499 5472 5415 5390 5339 5312 5286 5231 5205 5178 5128 5102 5075 5021 4994 4981 4918 4892 4867 4812 4785 4748 4693 4672 4641 4590 4553 4550 4480 4455 4430 4380 4355 4300 4273 4246 4187 4160 4137 4068 4048 4013 3960 3932 3902 3849 3822 3793 3738 3708 3677 3620 3595 3559 3498 3468 3436 3371 3328 3275 3250 3221 3157 3127 3096 3031 3000 2973 2913 2886 2857 2794 2767 2743 2677 2660 2629 2564 2543 2510 2440 2408
3473 3515 3533 3548 3591 3602 3622 3659 3675 3691 3716 3725 3735 3767 3781 3792 3813 3825 3838 3859 3872 3884 3910 3926 3938 3963 3977 4004 4017 4034 4073 4092 4113 4159 4180 4199 4226 4239 4253 4293 4309 4319 4362 4373 4385 4418 4433 4446 4479 4494 4505 4537 4547 4553 4578 4595 4621 4633 4640 4669 4682 4695 4717 4724 4733 4754 4761 4769 4789 4797 4807 4817 4823 4828 4835 4837 4837 4836 4835 4823 4837 4838 4842 4849 4855 4861 4865 4867 4862 4860 4856 4843 4840 4837 4835 4835 4838 4856 4868 4879 4911 4929 4947 4997 5027 5054 5108 5136 5188 5211 5234 5277 5297 5319 5354 5368 5382 5408 5424 5436 5461 5475 5489 5515 5528 5545 5565 5595 5611 5646 5662 5679 5720 5740 5753 5793 5814 5855 5873 5892 5927 5943 5962 6000 6017 6031 6052 6065 6076 6087 6095 6103 6103 6111 6121 6127 6139 6141 6146 6153 6160 6163 6164 6175 6182 6179 6179 6176 6170 6162 6157 6149 6131 6124 6116 6101 6094 6091 6082 6080 6079 6075 6071 6066 6058 6060 6066 6079 6088 6091 6108 6116 6132 6133 6138 6143 6143 6141 6145 6150 6155 6157 6155 6154 6154 6152 6146 6132 6126 6124 6133 6139 6143 6139 6134 6126 6104 6099 6060 6049 6036 6004 5991 5979 5942 5930 5924 5871 5851 5832 5797 5780 5759 5715 5695 5676 5631 5608 5582 5529 5505 5483 5427 5402 5351 5325 5298 5239 5211 5186 5140 5116 5089 5035 5010 4994 4927 4901 4877 4826 4800 4757 4697 4680 4651 4595 4563 4553 4485 4458 4432 4386 4362 4307 4277 4250 4188 4167 4143 4075 4049 4022 3970 3942 3913 3856 3829 3801 3745 3716 3685 3626 3603 3566 3505 3475 3445 3381 3339 3285 3256 3226 3165 3133 3104 3043 3013 2984 2923 2895 2868 2806 2778 2753 2699 2672 2640 2581 2557 2521 2450 2418
3469 3513 3532 3550 3582 3601 3622 3659 3676 3694 3724 3735 3745 3773 3788 3804 3829 3841 3853 3873 3885 3899 3928 3942 3955 3978 3989 4017 4033 4052 4091 4109 4127 4167 4186 4205 4233 4245 4259 4290 4309 4321 4357 4367 4383 4413 4432 4442 4470 4485 4501 4534 4537 4549 4572 4586 4611 4625 4637 4665 4676 4688 4710 4714 4722 4749 4757 4764 4785 4795 4803 4812 4822 4826 4833 4834 4834 4831 4828 4819 4828 4831 4837 4845 4849 4853 4858 4863 4862 4861 4857 4847 4846 4844 4844 4849 4855 4874 4884 4895 4925 4942 4961 5005 5033 5060 5114 5141 5191 5213 5235 5275 5296 5317 5355 5368 5381 5407 5419 5426 5445 5462 5479 5510 5524 5541 5563 5594 5611 5645 5661 5679 5722 5740 5753 5793 5812 5855 5873 5892 5924 5944 5960 5998 6015 6027 6043 6052 6060 6069 6076 6082 6086 6093 6102 6105 6113 6114 6118 6130 6141 6150 6152 6162 6171 6170 6170 6167 6162 6151 6147 6142 6131 6123 6115 6099 6093 6088 6082 6081 6081 6077 6074 6069 6060 6062 6068 6080 6085 6090 6105 6111 6123 6124 6130 6134 6131 6128 6130 6135 6138 6145 6146 6147 6146 6141 6133 6119 6117 6119 6135 6141 6143 6143 6138 6135 6107 6095 6067 6054 6040 6007 5993 5980 5944 5931 5925 5872 5853 5834 5799 5784 5766 5718 5699 5682 5637 5611 5585 5537 5517 5493 5443 5416 5365 5340 5314 5254 5226 5201 5154 5129 5103 5049 5017 4998 4939 4912 4886 4834 4808 4768 4710 4689 4663 4605 4569 4550 4492 4464 4439 4393 4369 4311 4280 4253 4197 4168 4143 4081 4059 4034 3981 3952 3922 3862 3836 3808 3751 3722 3692 3635 3614 3576 3513 3483 3453 3387 3347 3297 3265 3233 3172 3143 3114 3055 3027 2998 2932 2905 2879 2821 2791 2761 2704 2686 2669 2590 2568 2534 2468 2432
3464 3506 3526 3546 3580 3604 3625 3657 3672 3689 3725 3738 3749 3774 3790 3809 3840 3853 3863 3883 3896 3911 3940 3953 3965 3988 3999 4031 4048 4066 4104 4120 4137 4172 4189 4208 4240 4251 4264 4295 4313 4324 4360 4367 4379 4406 4423 4431 4465 4475 4488 4525 4530 4545 4566 4578 4599 4613 4632 4659 4670 4681 4703 4711 4722 4749 4756 4762 4782 4791 4800 4812 4820 4825 4829 4831 4832 4822 4824 4815 4821 4826 4832 4837 4840 4844 4850 4856 4860 4862 4858 4852 4854 4855 4860 4866 4874 4895 4906 4917 4944 4960 4977 5020 5046 5072 5121 5145 5191 5214 5236 5275 5294 5314 5351 5366 5379 5405 5418 5421 5430 5449 5472 5512 5526 5541 5566 5597 5613 5647 5663 5682 5723 5746 5750 5793 5812 5852 5870 5887 5921 5936 5959 5994 6009 6019 6034 6042 6047 6052 6056 6060 6054 6059 6070 6064 6076 6078 6084 6095 6109 6127 6133 6148 6162 6164 6164 6162 6156 6141 6138 6135 6127 6120 6111 6097 6093 6086 6078 6079 6078 6071 6070 6068 6064 6066 6071 6075 6086 6089 6096 6102 6111 6116 6114 6124 6123 6120 6118 6118 6121 6136 6141 6142 6141 6138 6133 6121 6118 6120 6135 6138 6139 6139 6133 6129 6103 6101 6070 6058 6043 6009 5994 5980 5943 5933 5925 5873 5856 5837 5800 5783 5765 5723 5703 5685 5640 5617 5596 5551 5530 5503 5457 5430 5380 5357 5332 5274 5247 5222 5171 5145 5118 5063 5034 5013 4955 4925 4896 4840 4814 4780 4713 4698 4673 4613 4574 4556 4499 4473 4447 4400 4373 4314 4285 4255 4197 4170 4146 4090 4064 4041 3987 3958 3926 3867 3841 3813 3756 3728 3698 3644 3622 3587 3524 3494 3462 3394 3356 3305 3272 3241 3181 3153 3125 3067 3041 3012 2945 2916 2889 2833 2800 2764 2707 2690 2677 2602 2575 2544 2480 2443
3468 3504 3520 3540 3574 3603 3620 3649 3665 3682 3716 3733 3749 3775 3790 3808 3843 3856 3866 3887 3901 3917 3945 3958 3969 3990 4004 4041 4060 4077 4113 4130 4146 4174 4189 4206 4239 4251 4263 4297 4314 4323 4360 4366 4375 4398 4421 4421 4450 4467 4476 4511 4518 4534 4558 4570 4591 4602 4625 4651 4664 4676 4701 4713 4726 4749 4756 4763 4785 4802 4804 4812 4819 4823 4826 4829 4830 4814 4822 4810 4814 4820 4822 4825 4830 4841 4845 4849 4860 4863 4864 4863 4866 4870 4881 4888 4896 4916 4926 4937 4963 4979 4994 5038 5064 5088 5131 5151 5196 5220 5242 5278 5294 5311 5346 5363 5378 5407 5421 5427 5435 5450 5473 5515 5530 5544 5567 5598 5616 5646 5661 5680 5721 5741 5748 5795 5812 5849 5864 5881 5912 5923 5952 5988 6002 6011 6025 6032 6036 6036 6036 6036 6032 6027 6037 6024 6041 6044 6053 6062 6075 6097 6106 6124 6131 6148 6155 6154 6147 6133 6132 6131 6121 6112 6105 6098 6095 6089 6079 6078 6074 6067 6068 6067 6067 6070 6070 6068 6082 6085 6088 6091 6102 6102 6101 6106 6108 6107 6104 6105 6108 6126 6134 6137 6142 6140 6139 6130 6125 6126 6138 6138 6138 6139 6132 6130 6095 6086 6069 6058 6044 6011 5996 5980 5940 5926 5899 5868 5853 5836 5799 5779 5758 5721 5702 5682 5644 5625 5606 5564 5542 5517 5468 5443 5395 5371 5345 5289 5264 5240 5188 5162 5133 5075 5046 5025 4970 4939 4910 4853 4826 4792 4738 4712 4683 4622 4588 4563 4506 4478 4451 4403 4375 4319 4291 4261 4190 4177 4154 4095 4060 4046 3991 3963 3931 3874 3847 3818 3761 3733 3704 3649 3624 3592 3534 3504 3471 3402 3362 3307 3276 3247 3188 3161 3136 3079 3051 3024 2960 2929 2900 2844 2808 2772 2717 2696 2684 2609 2587 2547 2483 2451
3465 3497 3513 3533 3572 3597 3612 3643 3662 3680 3712 3732 3752 3781 3793 3809 3842 3854 3864 3888 3905 3922 3948 3960 3973 3995 4009 4050 4070 4087 4122 4138 4151 4175 4189 4206 4237 4247 4260 4293 4311 4321 4352 4357 4370 4393 4406 4417 4437 4454 4466 4499 4510 4521 4549 4561 4587 4600 4618 4647 4660 4673 4700 4714 4727 4746 4753 4763 4788 4796 4801 4813 4819 4822 4826 4827 4827 4823 4818 4808 4808 4813 4817 4818 4821 4836 4843 4849 4863 4869 4872 4875 4879 4884 4900 4909 4918 4937 4946 4957 4985 4999 5014 5057 5080 5103 5143 5162 5205 5228 5248 5281 5297 5312 5345 5360 5374 5404 5420 5433 5450 5462 5479 5515 5532 5548 5571 5597 5617 5642 5657 5679 5721 5739 5751 5799 5815 5845 5860 5876 5908 5921 5946 5981 5996 6005 6010 6014 6018 6014 6011 6009 6004 5990 5979 5993 6004 6007 6017 6029 6044 6070 6079 6098 6110 6130 6137 6138 6133 6126 6126 6127 6115 6105 6099 6098 6095 6090 6080 6076 6069 6061 6061 6061 6064 6067 6066 6065 6081 6083 6085 6087 6092 6093 6087 6090 6093 6096 6094 6092 6094 6114 6123 6130 6140 6142 6141 6138 6137 6138 6142 6141 6140 6140 6133 6129 6094 6084 6067 6056 6042 6009 5992 5976 5938 5927 5893 5860 5846 5829 5792 5772 5752 5717 5699 5681 5647 5633 5617 5580 5558 5533 5480 5455 5409 5384 5357 5304 5281 5258 5208 5178 5147 5088 5060 5037 4985 4955 4927 4870 4841 4798 4750 4728 4697 4627 4594 4575 4518 4488 4459 4408 4380 4325 4298 4268 4209 4186 4164 4098 4076 4053 3998 3970 3939 3881 3853 3826 3770 3742 3713 3635 3630 3593 3536 3507 3477 3410 3372 3315 3285 3256 3197 3171 3145 3084 3056 3030 2971 2941 2913 2853 2819 2785 2729 2708 2697 2620 2594 2551 2493 2463
3448 3484 3503 3525 3567 3592 3606 3640 3662 3680 3709 3727 3747 3781 3795 3809 3841 3857 3869 3892 3907 3924 3948 3960 3975 4006 4022 4058 4076 4093 4124 4138 4149 4174 4191 4208 4235 4245 4256 4285 4306 4313 4341 4350 4363 4385 4404 4411 4427 4442 4459 4490 4497 4512 4543 4556 4586 4601 4611 4647 4662 4674 4695 4709 4724 4744 4751 4763 4787 4797 4803 4812 4817 4817 4823 4823 4821 4815 4811 4801 4802 4807 4810 4811 4815 4832 4843 4853 4868 4874 4879 4886 4892 4900 4916 4925 4936 4957 4966 4977 5007 5021 5036 5075 5095 5115 5157 5176 5213 5232 5251 5284 5301 5316 5340 5351 5362 5392 5412 5432 5459 5470 5483 5516 5534 5551 5574 5597 5616 5645 5659 5679 5723 5740 5755 5799 5814 5841 5856 5872 5907 5918 5943 5972 5986 5994 5997 5997 5996 5986 5982 5978 5968 5958 5947 5955 5967 5971 5982 5994 6011 6040 6052 6076 6092 6111 6122 6126 6126 6120 6118 6118 6111 6101 6094 6093 6091 6087 6075 6069 6063 6057 6057 6058 6062 6063 6061 6063 6075 6074 6080 6081 6081 6077 6077 6077 6080 6083 6082 6078 6079 6101 6113 6123 6135 6139 6140 6140 6143 6146 6145 6143 6141 6135 6130 6126 6099 6085 6065 6055 6042 6009 5989 5972 5932 5919 5890 5854 5836 5814 5775 5761 5747 5712 5695 5678 5650 5635 5621 5588 5566 5551 5494 5469 5423 5399 5373 5321 5299 5275 5224 5194 5163 5105 5072 5052 5001 4971 4941 4886 4858 4818 4761 4757 4709 4645 4618 4592 4536 4504 4472 4416 4389 4335 4306 4277 4217 4191 4167 4107 4089 4059 4005 3978 3947 3888 3861 3834 3779 3751 3722 3641 3640 3595 3536 3510 3481 3416 3382 3324 3294 3267 3209 3183 3156 3091 3064 3039 2980 2952 2924 2865 2833 2800 2741 2719 2706 2629 2602 2567 2507 2475
3439 3478 3500 3520 3560 3583 3596 3634 3659 3679 3706 3721 3739 3777 3795 3809 3839 3857 3871 3895 3910 3924 3949 3963 3977 4011 4029 4058 4073 4090 4122 4135 4145 4173 4190 4205 4229 4240 4254 4279 4297 4304 4331 4341 4356 4374 4387 4399 4421 4434 4454 4480 4487 4497 4535 4549 4581 4596 4603 4645 4661 4672 4686 4700 4716 4739 4748 4760 4783 4788 4801 4807 4810 4812 4817 4817 4813 4807 4803 4793 4794 4795 4797 4803 4810 4830 4842 4854 4870 4876 4884 4897 4905 4915 4929 4939 4952 4977 4987 4999 5027 5041 5055 5092 5111 5130 5167 5187 5219 5236 5252 5285 5300 5311 5328 5341 5353 5381 5399 5419 5457 5472 5487 5521 5539 5554 5575 5595 5614 5650 5664 5680 5718 5738 5747 5790 5807 5836 5851 5867 5900 5911 5933 5959 5971 5979 5983 5980 5973 5954 5947 5943 5934 5922 5908 5913 5927 5934 5947 5958 5973 6005 6020 6052 6072 6094 6110 6116 6117 6102 6095 6093 6097 6094 6088 6082 6084 6083 6070 6063 6060 6060 6059 6060 6064 6062 6059 6061 6071 6069 6073 6073 6070 6069 6066 6061 6063 6064 6066 6068 6072 6093 6103 6112 6129 6136 6140 6143 6145 6147 6145 6145 6143 6127 6133 6127 6095 6081 6060 6053 6043 6010 5989 5967 5924 5914 5885 5845 5824 5799 5755 5744 5735 5706 5690 5676 5650 5634 5618 5583 5563 5556 5505 5482 5431 5409 5386 5337 5314 5291 5241 5211 5180 5123 5091 5067 5013 4984 4953 4899 4873 4834 4773 4763 4721 4661 4635 4609 4553 4521 4488 4428 4400 4343 4314 4286 4227 4197 4171 4111 4093 4069 4013 3985 3956 3897 3869 3841 3783 3757 3731 3653 3652 3604 3546 3520 3490 3425 3391 3330 3301 3274 3220 3196 3169 3105 3079 3053 2990 2962 2936 2880 2849 2816 2757 2731 2720 2639 2610 2586 2520 2488
3437 3481 3502 3522 3558 3580 3596 3635 3659 3679 3705 3721 3740 3778 3795 3809 3836 3854 3869 3894 3907 3918 3948 3965 3980 4009 4025 4054 4069 4086 4115 4129 4142 4168 4184 4198 4222 4235 4250 4273 4284 4294 4316 4325 4344 4363 4370 4386 4412 4422 4445 4469 4479 4499 4525 4541 4573 4587 4595 4634 4649 4658 4674 4690 4707 4729 4741 4753 4778 4788 4796 4806 4808 4810 4812 4810 4806 4798 4795 4785 4782 4781 4790 4799 4810 4826 4836 4847 4868 4877 4889 4905 4914 4928 4949 4958 4971 4998 5010 5022 5048 5060 5072 5106 5126 5144 5179 5197 5226 5239 5253 5280 5292 5301 5324 5341 5355 5379 5395 5412 5450 5468 5488 5526 5542 5558 5577 5597 5612 5646 5662 5679 5713 5737 5749 5783 5802 5833 5845 5859 5889 5897 5922 5949 5958 5965 5964 5957 5947 5925 5915 5906 5895 5881 5870 5868 5883 5891 5905 5913 5930 5973 5991 6030 6053 6067 6096 6103 6100 6073 6065 6066 6080 6083 6078 6070 6074 6077 6068 6064 6063 6060 6058 6057 6058 6056 6053 6055 6061 6057 6067 6068 6063 6062 6057 6050 6049 6048 6051 6056 6064 6083 6092 6101 6124 6134 6139 6144 6146 6145 6144 6144 6141 6122 6129 6125 6089 6078 6058 6050 6038 6003 5981 5961 5919 5908 5880 5840 5818 5792 5746 5734 5723 5697 5682 5668 5649 5636 5620 5588 5570 5560 5515 5492 5441 5420 5399 5352 5329 5307 5257 5227 5196 5139 5108 5080 5025 4995 4964 4910 4883 4849 4795 4776 4734 4671 4646 4622 4563 4532 4501 4442 4413 4350 4321 4295 4240 4210 4182 4122 4102 4077 4021 3993 3965 3907 3880 3852 3793 3766 3739 3660 3653 3615 3560 3532 3499 3434 3400 3340 3311 3281 3228 3205 3179 3119 3094 3068 3003 2975 2948 2893 2864 2833 2774 2749 2730 2654 2630 2600 2534 2503
3434 3486 3505 3524 3551 3582 3601 3636 3654 3671 3702 3718 3737 3779 3795 3808 3833 3849 3865 3890 3902 3914 3946 3963 3978 4005 4019 4049 4065 4080 4107 4122 4137 4161 4175 4189 4215 4227 4242 4264 4268 4280 4305 4310 4325 4352 4364 4377 4400 4408 4435 4459 4464 4487 4515 4532 4566 4580 4590 4624 4638 4646 4666 4685 4703 4728 4740 4751 4774 4782 4788 4800 4806 4807 4805 4803 4799 4792 4789 4776 4773 4770 4781 4796 4807 4822 4831 4843 4866 4878 4893 4914 4924 4940 4971 4982 4993 5016 5029 5041 5065 5078 5090 5120 5135 5150 5183 5201 5231 5243 5256 5280 5289 5302 5335 5350 5361 5385 5401 5418 5451 5467 5487 5526 5543 5561 5578 5601 5614 5645 5661 5679 5714 5734 5746 5778 5797 5828 5839 5849 5881 5889 5909 5936 5944 5948 5945 5936 5924 5899 5885 5871 5854 5842 5832 5816 5837 5849 5867 5878 5895 5943 5963 6004 6029 6044 6082 6089 6086 6061 6057 6060 6066 6066 6065 6060 6064 6069 6067 6066 6064 6055 6051 6049 6049 6047 6046 6046 6045 6035 6054 6059 6056 6058 6051 6045 6041 6036 6038 6045 6052 6073 6084 6095 6121 6131 6138 6143 6144 6143 6140 6138 6134 6110 6114 6113 6088 6078 6054 6042 6027 5993 5974 5955 5911 5900 5874 5837 5815 5790 5749 5734 5720 5687 5672 5661 5648 5638 5626 5597 5581 5567 5524 5503 5456 5434 5413 5366 5343 5321 5270 5241 5210 5150 5118 5091 5035 5007 4978 4919 4890 4861 4792 4785 4749 4686 4655 4632 4570 4540 4511 4453 4423 4361 4332 4306 4252 4222 4192 4124 4111 4082 4022 3995 3968 3916 3890 3864 3809 3781 3753 3666 3666 3626 3574 3544 3508 3439 3407 3354 3325 3295 3238 3213 3187 3133 3108 3083 3021 2992 2963 2905 2876 2846 2790 2766 2747 2674 2653 2617 2550 2517
3432 3489 3506 3521 3550 3581 3600 3634 3648 3664 3700 3715 3730 3770 3785 3798 3828 3844 3860 3887 3901 3916 3944 3957 3969 3999 4013 4039 4056 4073 4098 4112 4126 4154 4167 4179 4204 4215 4228 4252 4260 4272 4293 4300 4312 4345 4348 4371 4387 4397 4420 4447 4452 4477 4506 4522 4559 4574 4579 4613 4629 4641 4665 4684 4704 4731 4741 4750 4769 4777 4783 4794 4798 4801 4799 4796 4792 4785 4782 4770 4766 4760 4767 4785 4801 4822 4834 4847 4866 4880 4896 4925 4936 4950 4986 4998 5009 5031 5044 5057 5082 5093 5106 5133 5145 5157 5186 5201 5235 5248 5259 5277 5288 5304 5343 5358 5368 5388 5405 5423 5455 5470 5489 5527 5545 5563 5575 5602 5616 5648 5664 5679 5711 5728 5739 5774 5789 5820 5831 5840 5868 5881 5894 5919 5925 5927 5923 5916 5902 5870 5854 5840 5823 5803 5790 5778 5784 5797 5827 5843 5863 5912 5936 5981 6003 6021 6061 6072 6076 6067 6065 6064 6057 6053 6053 6054 6056 6061 6064 6063 6059 6047 6043 6042 6041 6040 6037 6034 6038 6028 6041 6046 6049 6056 6048 6042 6038 6032 6029 6034 6041 6065 6078 6090 6111 6119 6127 6139 6141 6141 6137 6133 6126 6118 6110 6113 6088 6076 6046 6031 6017 5988 5970 5952 5909 5898 5868 5830 5809 5786 5749 5735 5719 5683 5668 5659 5649 5639 5628 5599 5582 5569 5531 5511 5468 5447 5426 5379 5356 5332 5281 5253 5223 5161 5134 5103 5046 5018 4990 4928 4897 4875 4804 4799 4762 4696 4668 4643 4582 4552 4522 4462 4432 4374 4345 4318 4260 4232 4199 4137 4118 4085 4026 3996 3969 3919 3895 3870 3812 3784 3760 3685 3678 3639 3584 3554 3520 3452 3418 3369 3341 3311 3253 3225 3199 3145 3121 3098 3037 3008 2979 2919 2888 2860 2804 2775 2759 2685 2666 2635 2566 2531
3430 3486 3502 3517 3550 3574 3593 3629 3644 3661 3702 3718 3732 3761 3775 3788 3822 3837 3852 3881 3896 3910 3937 3950 3962 3992 4008 4033 4050 4067 4091 4102 4116 4148 4161 4172 4194 4203 4214 4240 4249 4259 4287 4288 4303 4336 4341 4362 4372 4385 4407 4435 4442 4467 4499 4515 4551 4568 4568 4607 4622 4637 4661 4677 4693 4720 4731 4742 4761 4773 4776 4784 4788 4795 4795 4793 4788 4780 4776 4764 4766 4761 4766 4783 4800 4824 4838 4851 4873 4885 4898 4930 4945 4960 4993 5008 5021 5044 5058 5072 5097 5106 5118 5148 5160 5171 5196 5209 5237 5249 5258 5273 5286 5304 5339 5353 5363 5388 5406 5424 5456 5471 5489 5527 5543 5560 5575 5600 5615 5649 5664 5676 5704 5727 5733 5768 5782 5810 5821 5832 5858 5867 5884 5904 5907 5905 5901 5893 5877 5846 5829 5813 5785 5761 5752 5725 5731 5740 5781 5805 5831 5880 5906 5959 5986 6004 6042 6054 6062 6064 6063 6060 6050 6046 6045 6051 6052 6053 6055 6055 6051 6038 6034 6033 6031 6029 6027 6025 6027 6032 6036 6038 6045 6051 6049 6043 6039 6033 6027 6030 6037 6058 6072 6083 6101 6108 6116 6134 6137 6138 6135 6128 6121 6114 6116 6113 6085 6070 6038 6024 6011 5982 5964 5945 5903 5892 5866 5821 5799 5779 5746 5731 5716 5678 5665 5659 5649 5640 5628 5601 5585 5570 5536 5517 5477 5457 5438 5391 5367 5343 5289 5264 5236 5175 5144 5114 5059 5031 5003 4944 4911 4878 4819 4807 4774 4706 4679 4657 4596 4564 4534 4472 4440 4385 4357 4329 4269 4237 4206 4145 4124 4091 4036 4008 3980 3924 3896 3867 3800 3774 3757 3704 3692 3650 3594 3564 3532 3468 3430 3380 3353 3326 3267 3240 3213 3157 3135 3112 3050 3022 2994 2934 2905 2878 2819 2791 2774 2700 2678 2645 2576 2545
3427 3479 3497 3513 3552 3568 3586 3616 3634 3654 3697 3717 3733 3759 3772 3786 3817 3830 3843 3874 3887 3900 3926 3941 3953 3983 4002 4030 4045 4060 4083 4096 4111 4141 4153 4163 4184 4194 4205 4227 4239 4252 4277 4279 4295 4322 4329 4347 4361 4378 4400 4424 4429 4456 4492 4507 4541 4560 4561 4604 4617 4632 4655 4668 4681 4703 4716 4729 4752 4764 4775 4781 4788 4792 4794 4793 4789 4780 4776 4769 4772 4773 4781 4793 4806 4826 4838 4852 4880 4893 4905 4934 4950 4965 5001 5018 5032 5059 5073 5086 5108 5116 5126 5158 5171 5181 5202 5212 5236 5247 5256 5275 5289 5304 5331 5341 5353 5388 5408 5427 5459 5476 5492 5526 5542 5558 5589 5604 5619 5648 5666 5676 5703 5724 5733 5763 5778 5806 5816 5825 5850 5857 5881 5896 5895 5893 5886 5877 5862 5830 5811 5791 5752 5731 5718 5699 5696 5705 5751 5779 5807 5856 5883 5943 5973 5995 6033 6046 6054 6054 6053 6051 6046 6043 6043 6047 6047 6043 6040 6040 6038 6026 6022 6021 6017 6017 6018 6018 6009 6016 6027 6033 6043 6051 6050 6046 6042 6037 6032 6034 6039 6053 6065 6077 6097 6104 6112 6126 6128 6131 6128 6120 6113 6107 6111 6109 6066 6053 6031 6018 6004 5976 5957 5938 5898 5885 5860 5819 5797 5776 5742 5725 5705 5669 5663 5660 5647 5637 5626 5603 5588 5572 5540 5522 5482 5462 5442 5398 5375 5351 5297 5273 5248 5187 5155 5125 5072 5043 5015 4956 4923 4889 4842 4825 4782 4718 4689 4668 4607 4576 4546 4484 4453 4398 4369 4339 4280 4249 4217 4155 4133 4102 4048 4020 3991 3931 3902 3873 3805 3778 3760 3714 3702 3658 3602 3574 3546 3479 3444 3391 3365 3337 3278 3253 3229 3174 3150 3126 3065 3033 3004 2948 2923 2898 2835 2809 2789 2717 2692 2655 2589 2558
3423 3471 3491 3508 3541 3567 3583 3610 3626 3645 3686 3708 3727 3754 3767 3780 3809 3823 3838 3869 3880 3892 3917 3930 3942 3971 3989 4022 4039 4052 4068 4082 4101 4130 4139 4149 4173 4185 4196 4217 4228 4234 4267 4269 4288 4310 4322 4335 4366 4371 4396 4415 4428 4449 4483 4497 4529 4548 4552 4592 4605 4621 4647 4661 4675 4695 4706 4719 4746 4760 4766 4772 4783 4789 4794 4793 4788 4781 4781 4778 4782 4786 4795 4805 4818 4832 4841 4853 4882 4896 4908 4939 4954 4970 5008 5026 5041 5068 5082 5095 5114 5122 5134 5163 5176 5185 5202 5212 5237 5248 5257 5279 5291 5303 5331 5345 5359 5394 5413 5431 5461 5478 5496 5530 5546 5562 5592 5606 5620 5647 5662 5677 5706 5723 5732 5765 5779 5806 5816 5824 5849 5857 5871 5884 5888 5889 5879 5868 5854 5821 5801 5780 5739 5711 5698 5667 5683 5692 5733 5762 5791 5845 5873 5932 5960 5981 6025 6041 6051 6049 6046 6042 6039 6040 6039 6038 6037 6034 6025 6023 6019 6009 6007 6006 6004 6005 6006 6003 5996 6002 6015 6024 6036 6046 6047 6048 6046 6043 6038 6039 6042 6053 6062 6072 6091 6098 6105 6114 6115 6118 6118 6112 6107 6101 6100 6101 6050 6039 6026 6013 5999 5968 5949 5931 5893 5879 5858 5819 5799 5780 5741 5720 5699 5665 5663 5660 5641 5632 5623 5603 5590 5577 5546 5528 5489 5468 5446 5401 5380 5358 5306 5279 5253 5196 5176 5136 5085 5057 5028 4968 4936 4911 4840 4833 4791 4733 4702 4677 4617 4586 4556 4495 4466 4413 4384 4352 4269 4260 4229 4168 4145 4116 4061 4031 3999 3941 3916 3889 3831 3801 3776 3721 3709 3668 3609 3582 3557 3487 3456 3404 3379 3352 3292 3267 3244 3192 3166 3140 3078 3045 3015 2962 2938 2914 2854 2824 2805 2732 2707 2673 2605 2572
3422 3468 3487 3502 3539 3566 3582 3613 3626 3638 3672 3695 3716 3744 3757 3770 3802 3817 3831 3861 3874 3886 3913 3926 3937 3965 3981 4014 4029 4040 4058 4073 4090 4119 4127 4136 4158 4172 4185 4207 4213 4220 4252 4259 4281 4305 4317 4329 4352 4363 4384 4407 4424 4440 4469 4484 4516 4533 4543 4571 4586 4602 4633 4649 4664 4691 4702 4712 4736 4748 4758 4763 4776 4786 4792 4791 4788 4788 4789 4788 4793 4798 4808 4817 4829 4844 4850 4861 4885 4897 4912 4945 4962 4978 5014 5031 5046 5073 5089 5103 5123 5133 5144 5169 5181 5194 5205 5210 5234 5249 5260 5279 5289 5303 5338 5354 5369 5401 5418 5435 5466 5482 5501 5537 5552 5567 5592 5603 5614 5644 5660 5676 5706 5726 5734 5768 5780 5805 5817 5826 5849 5860 5854 5869 5881 5887 5876 5866 5853 5820 5801 5782 5738 5714 5703 5677 5691 5699 5731 5755 5781 5838 5867 5922 5948 5969 6012 6027 6036 6041 6037 6033 6029 6029 6029 6023 6021 6018 6009 6004 5997 5989 5990 5991 5991 5993 5993 5991 5989 5993 6008 6014 6037 6037 6037 6044 6045 6044 6043 6044 6047 6056 6061 6068 6084 6091 6097 6107 6108 6109 6109 6106 6101 6092 6088 6090 6050 6050 6020 6007 5992 5960 5943 5927 5890 5877 5854 5816 5798 5781 5739 5718 5701 5672 5666 5659 5636 5631 5624 5601 5590 5585 5553 5537 5497 5474 5451 5409 5390 5369 5314 5284 5257 5201 5187 5148 5096 5069 5042 4985 4953 4923 4846 4840 4804 4750 4720 4691 4630 4598 4566 4507 4479 4425 4397 4367 4288 4271 4242 4186 4161 4133 4076 4046 4013 3954 3929 3902 3847 3819 3792 3733 3720 3682 3622 3594 3567 3502 3475 3423 3397 3371 3315 3287 3262 3209 3183 3158 3094 3063 3036 2984 2957 2930 2872 2840 2824 2745 2721 2693 2625 2590
3424 3469 3485 3500 3538 3558 3576 3616 3629 3638 3668 3687 3704 3732 3747 3762 3795 3810 3824 3847 3861 3878 3907 3919 3934 3964 3978 4005 4017 4029 4054 4067 4081 4107 4117 4125 4148 4163 4176 4198 4203 4208 4244 4251 4271 4298 4312 4325 4343 4357 4373 4403 4412 4432 4457 4473 4506 4518 4529 4554 4570 4588 4617 4632 4647 4678 4693 4704 4726 4738 4749 4763 4773 4783 4791 4793 4794 4798 4803 4802 4805 4808 4822 4832 4843 4857 4865 4874 4896 4907 4921 4952 4967 4984 5018 5034 5050 5080 5095 5111 5132 5143 5155 5176 5187 5198 5208 5210 5232 5246 5258 5277 5290 5307 5345 5358 5371 5402 5419 5437 5472 5489 5508 5543 5556 5569 5594 5605 5615 5646 5662 5676 5709 5730 5737 5772 5783 5807 5819 5830 5854 5863 5859 5881 5890 5892 5883 5875 5865 5833 5814 5796 5750 5729 5717 5700 5712 5721 5747 5766 5789 5841 5868 5922 5949 5964 6002 6011 6017 6028 6027 6024 6018 6017 6016 6005 5998 5994 5989 5984 5978 5975 5978 5979 5976 5978 5982 5982 5978 5985 6008 6011 6029 6035 6026 6033 6036 6039 6045 6047 6050 6057 6060 6063 6078 6085 6091 6101 6104 6105 6102 6097 6091 6080 6078 6078 6046 6044 6010 5997 5983 5953 5938 5924 5878 5869 5845 5812 5797 5779 5737 5718 5704 5680 5672 5664 5645 5638 5629 5599 5586 5587 5556 5542 5502 5479 5459 5422 5401 5379 5325 5295 5267 5211 5199 5155 5102 5078 5055 5001 4968 4937 4862 4847 4817 4762 4734 4705 4645 4614 4584 4521 4492 4437 4409 4381 4320 4289 4262 4198 4176 4149 4089 4062 4030 3970 3942 3913 3857 3831 3804 3750 3735 3696 3640 3612 3584 3528 3495 3448 3419 3392 3339 3311 3286 3232 3205 3180 3117 3089 3063 3008 2980 2952 2892 2863 2839 2761 2737 2711 2647 2613
3426 3466 3484 3501 3531 3555 3571 3611 3627 3639 3667 3680 3693 3725 3741 3756 3788 3804 3818 3835 3846 3862 3893 3907 3924 3956 3968 3995 4009 4022 4045 4058 4070 4094 4104 4116 4146 4161 4172 4190 4196 4202 4236 4245 4262 4289 4306 4319 4339 4350 4371 4400 4402 4426 4452 4470 4503 4509 4518 4545 4562 4578 4601 4616 4631 4660 4676 4691 4716 4727 4739 4758 4768 4783 4794 4798 4802 4811 4815 4815 4820 4823 4834 4840 4849 4867 4877 4888 4911 4922 4934 4959 4972 4988 5020 5035 5051 5084 5100 5117 5140 5150 5163 5185 5194 5202 5213 5219 5237 5247 5255 5279 5293 5309 5346 5360 5374 5407 5425 5443 5477 5493 5511 5543 5557 5572 5600 5613 5625 5655 5670 5685 5717 5736 5744 5771 5785 5812 5826 5840 5861 5872 5881 5899 5902 5900 5896 5891 5882 5850 5832 5814 5769 5754 5737 5716 5721 5746 5773 5791 5813 5859 5883 5930 5959 5969 5996 6006 6012 6021 6021 6019 6008 6004 6001 5991 5984 5979 5976 5972 5966 5965 5967 5965 5958 5962 5968 5973 5974 5977 6000 6006 6017 6023 6023 6030 6033 6036 6042 6045 6048 6056 6060 6063 6071 6077 6085 6094 6096 6099 6097 6091 6084 6074 6068 6066 6034 6025 6003 5991 5976 5945 5930 5915 5875 5862 5845 5812 5796 5780 5742 5721 5706 5685 5677 5669 5653 5644 5634 5605 5589 5585 5570 5542 5508 5488 5468 5418 5393 5374 5336 5308 5278 5221 5200 5163 5108 5087 5066 5013 4981 4950 4893 4865 4832 4777 4741 4716 4658 4630 4601 4538 4509 4451 4422 4394 4338 4309 4282 4213 4196 4161 4103 4078 4048 3987 3958 3928 3873 3847 3820 3757 3741 3714 3660 3634 3607 3552 3511 3468 3437 3411 3361 3335 3310 3256 3229 3201 3138 3112 3086 3029 3001 2973 2913 2881 2858 2782 2755 2722 2664 2633
3425 3463 3481 3498 3527 3547 3563 3601 3619 3635 3660 3672 3686 3717 3732 3744 3778 3796 3810 3827 3838 3853 3883 3897 3914 3947 3962 3989 4001 4013 4038 4051 4063 4084 4094 4108 4140 4154 4164 4180 4192 4199 4228 4237 4255 4282 4301 4313 4334 4345 4369 4394 4398 4419 4446 4462 4493 4494 4504 4537 4554 4567 4588 4603 4619 4648 4663 4678 4699 4710 4725 4748 4762 4783 4793 4799 4806 4819 4822 4824 4833 4837 4846 4848 4856 4875 4887 4902 4924 4934 4946 4969 4979 4994 5029 5043 5058 5089 5103 5119 5145 5155 5169 5193 5200 5206 5217 5225 5244 5252 5260 5286 5300 5313 5342 5359 5377 5415 5433 5452 5482 5495 5511 5542 5558 5575 5606 5620 5632 5661 5679 5696 5726 5738 5750 5771 5789 5822 5837 5851 5870 5880 5892 5906 5909 5910 5910 5906 5898 5869 5851 5834 5796 5780 5763 5745 5749 5773 5800 5815 5834 5878 5898 5936 5962 5974 5991 6006 6013 6015 6014 6011 5997 5991 5985 5980 5978 5974 5967 5963 5957 5950 5951 5951 5947 5951 5956 5967 5976 5976 5989 5995 6010 6014 6022 6032 6033 6036 6039 6043 6047 6057 6061 6064 6069 6072 6078 6087 6088 6089 6086 6080 6074 6064 6059 6053 6021 6013 5994 5982 5968 5933 5919 5905 5872 5866 5845 5810 5793 5779 5744 5725 5711 5691 5681 5672 5657 5649 5640 5615 5601 5584 5573 5547 5513 5492 5470 5415 5390 5373 5343 5317 5288 5232 5211 5172 5120 5098 5076 5025 4983 4966 4884 4880 4851 4801 4753 4728 4673 4646 4617 4557 4528 4466 4438 4411 4351 4321 4293 4224 4206 4176 4119 4094 4063 4002 3973 3943 3890 3865 3839 3773 3760 3734 3681 3655 3627 3569 3529 3483 3454 3431 3385 3356 3327 3274 3246 3215 3155 3130 3105 3046 3018 2991 2932 2902 2876 2795 2768 2736 2677 2648
3420 3455 3475 3493 3524 3538 3552 3593 3615 3633 3657 3668 3680 3707 3721 3731 3762 3781 3797 3818 3830 3845 3873 3887 3906 3944 3958 3984 3993 4006 4035 4046 4055 4076 4088 4102 4134 4147 4157 4170 4186 4193 4223 4230 4252 4279 4294 4306 4326 4337 4361 4385 4387 4411 4438 4449 4474 4481 4491 4525 4538 4549 4575 4591 4606 4634 4648 4664 4688 4700 4720 4735 4757 4775 4789 4796 4806 4824 4830 4835 4842 4847 4858 4862 4870 4887 4899 4913 4935 4944 4956 4979 4989 5002 5043 5060 5073 5098 5111 5124 5152 5163 5175 5195 5203 5209 5214 5221 5245 5256 5266 5293 5307 5321 5347 5363 5380 5416 5436 5456 5487 5498 5508 5541 5562 5581 5611 5626 5639 5665 5684 5703 5733 5745 5755 5783 5800 5831 5846 5859 5878 5889 5902 5916 5923 5927 5926 5922 5914 5891 5875 5860 5829 5813 5792 5786 5785 5802 5825 5837 5851 5892 5912 5946 5966 5967 5992 6006 6011 6003 6002 6000 5988 5982 5975 5969 5969 5965 5959 5955 5950 5942 5943 5945 5946 5948 5952 5964 5971 5972 5984 5990 6007 6010 6018 6024 6028 6034 6042 6047 6052 6061 6065 6067 6071 6074 6078 6082 6082 6082 6077 6071 6066 6053 6048 6049 6015 6006 5984 5971 5956 5924 5910 5897 5869 5861 5841 5806 5790 5776 5746 5733 5723 5700 5690 5681 5663 5655 5647 5626 5612 5596 5577 5553 5516 5496 5477 5432 5409 5388 5350 5326 5301 5245 5223 5184 5132 5106 5082 5034 4994 4979 4915 4902 4868 4810 4769 4743 4688 4660 4632 4575 4545 4482 4456 4429 4367 4336 4304 4247 4217 4189 4134 4107 4078 4019 3989 3958 3908 3885 3858 3792 3778 3752 3701 3675 3645 3586 3546 3504 3475 3452 3405 3376 3347 3289 3260 3231 3172 3145 3119 3062 3035 3008 2948 2917 2892 2811 2789 2777 2694 2665
3418 3446 3465 3486 3527 3532 3546 3590 3610 3627 3650 3661 3671 3698 3715 3727 3751 3769 3785 3811 3824 3838 3867 3882 3900 3937 3951 3975 3984 3996 4029 4040 4048 4071 4083 4096 4128 4143 4155 4170 4182 4191 4225 4231 4246 4272 4286 4299 4315 4332 4350 4377 4379 4401 4432 4445 4463 4474 4482 4513 4527 4537 4563 4579 4593 4619 4634 4652 4684 4699 4714 4724 4749 4765 4790 4799 4809 4831 4838 4842 4851 4857 4868 4874 4884 4898 4907 4919 4947 4958 4970 4993 5003 5015 5053 5072 5085 5107 5120 5132 5161 5172 5181 5196 5204 5210 5213 5218 5243 5255 5267 5294 5309 5324 5354 5370 5385 5417 5437 5458 5493 5503 5510 5547 5571 5589 5621 5637 5649 5671 5687 5704 5735 5749 5761 5800 5813 5840 5853 5868 5888 5898 5914 5929 5938 5944 5945 5941 5934 5912 5901 5890 5863 5858 5842 5831 5814 5832 5852 5862 5872 5904 5922 5957 5969 5975 5999 6008 6006 5992 5991 5990 5980 5974 5971 5965 5961 5957 5948 5945 5945 5943 5943 5945 5947 5948 5952 5964 5969 5974 5989 5996 6013 6011 6017 6019 6024 6031 6045 6051 6056 6063 6064 6065 6074 6078 6081 6082 6082 6080 6075 6070 6064 6042 6041 6034 6010 6001 5975 5960 5945 5919 5906 5894 5861 5854 5836 5803 5790 5778 5749 5739 5731 5709 5699 5691 5672 5661 5652 5629 5617 5599 5588 5559 5522 5505 5487 5448 5425 5403 5359 5335 5311 5253 5237 5195 5143 5116 5091 5042 5007 4991 4931 4920 4875 4828 4789 4758 4701 4675 4648 4592 4561 4499 4471 4443 4384 4352 4319 4251 4230 4201 4147 4121 4091 4036 4005 3976 3926 3903 3876 3809 3796 3769 3717 3693 3664 3606 3568 3527 3498 3471 3421 3395 3368 3308 3280 3252 3189 3160 3135 3081 3052 3023 2962 2931 2904 2828 2807 2795 2711 2679
3408 3439 3456 3477 3513 3525 3541 3580 3596 3608 3631 3644 3656 3688 3707 3722 3746 3759 3773 3802 3817 3832 3865 3878 3892 3927 3944 3967 3976 3988 4019 4032 4043 4067 4080 4092 4121 4136 4148 4172 4182 4185 4220 4225 4239 4263 4280 4291 4309 4322 4341 4369 4369 4390 4417 4432 4447 4456 4470 4497 4515 4527 4553 4569 4584 4611 4624 4639 4674 4692 4706 4720 4749 4762 4792 4803 4814 4834 4843 4848 4862 4869 4882 4886 4894 4909 4916 4927 4957 4973 4985 5006 5017 5027 5058 5077 5091 5115 5127 5140 5167 5175 5181 5198 5203 5208 5214 5221 5245 5257 5269 5300 5315 5329 5357 5373 5390 5421 5439 5460 5499 5514 5525 5564 5585 5603 5635 5650 5662 5681 5693 5707 5739 5755 5769 5812 5826 5850 5864 5878 5898 5914 5928 5946 5953 5959 5962 5962 5957 5937 5928 5920 5895 5886 5873 5868 5846 5863 5881 5890 5898 5922 5935 5964 5981 5992 6002 6006 6004 5989 5982 5978 5972 5968 5966 5961 5955 5949 5942 5941 5942 5946 5943 5943 5946 5946 5951 5967 5978 5981 5994 6003 6017 6016 6021 6028 6034 6039 6045 6050 6055 6056 6052 6054 6073 6080 6082 6081 6079 6075 6069 6066 6061 6041 6036 6023 6001 5991 5968 5953 5938 5914 5901 5893 5854 5849 5830 5803 5792 5779 5750 5741 5734 5718 5709 5700 5680 5667 5653 5629 5618 5600 5587 5563 5530 5513 5494 5453 5431 5410 5367 5342 5315 5249 5249 5208 5156 5131 5105 5053 5017 5005 4940 4928 4882 4839 4806 4771 4717 4691 4665 4607 4577 4516 4486 4456 4398 4388 4334 4266 4245 4215 4160 4136 4107 4050 4022 3994 3944 3921 3892 3829 3812 3785 3735 3710 3681 3620 3592 3544 3516 3488 3438 3414 3389 3330 3302 3274 3208 3179 3152 3098 3069 3040 2978 2946 2926 2842 2833 2808 2728 2696
3400 3435 3454 3473 3508 3521 3536 3568 3582 3596 3622 3635 3648 3678 3696 3714 3742 3753 3764 3792 3808 3825 3862 3876 3886 3919 3937 3963 3975 3988 4011 4022 4036 4064 4077 4087 4113 4129 4142 4170 4182 4186 4218 4223 4237 4256 4274 4283 4303 4312 4336 4357 4362 4376 4395 4408 4426 4441 4454 4479 4498 4513 4538 4554 4572 4605 4617 4631 4662 4677 4694 4713 4748 4763 4788 4798 4812 4833 4841 4855 4867 4878 4892 4894 4901 4920 4931 4942 4971 4985 4997 5017 5026 5037 5062 5079 5097 5126 5137 5147 5171 5178 5184 5200 5206 5209 5217 5224 5248 5260 5272 5306 5322 5338 5367 5381 5397 5429 5446 5466 5510 5525 5541 5579 5598 5616 5648 5663 5673 5693 5706 5721 5754 5770 5775 5823 5835 5858 5873 5886 5913 5923 5945 5962 5968 5974 5979 5980 5978 5963 5955 5947 5925 5920 5901 5893 5877 5893 5908 5915 5923 5943 5953 5974 5983 5997 6003 6004 6002 5984 5971 5966 5965 5961 5955 5950 5947 5945 5943 5944 5944 5945 5944 5944 5948 5949 5951 5964 5977 5980 5997 6007 6019 6022 6022 6039 6045 6046 6046 6051 6056 6053 6049 6053 6076 6081 6081 6078 6075 6071 6066 6061 6055 6032 6026 6020 5993 5980 5957 5944 5930 5903 5888 5876 5848 5842 5823 5800 5788 5775 5748 5741 5735 5722 5713 5705 5686 5671 5658 5632 5621 5607 5589 5566 5532 5516 5497 5457 5436 5415 5372 5347 5319 5258 5256 5218 5167 5142 5117 5066 5031 5017 4952 4937 4896 4852 4819 4786 4733 4706 4680 4623 4594 4535 4503 4473 4415 4384 4352 4292 4270 4231 4178 4154 4126 4066 4037 4010 3962 3937 3908 3847 3825 3800 3754 3727 3695 3637 3614 3561 3534 3506 3458 3435 3409 3351 3322 3292 3230 3200 3171 3116 3086 3058 2996 2955 2943 2857 2845 2823 2747 2714
