ncols         221
nrows         72
xllcorner     -8609.75923116
yllcorner     1557447.55097
cellsize      59.2252938
NODATA_value  -9999
-1656 -1665 -1650 -1661 -1665 -1664 -1664 -1667 -1678 -1688 -1689 -1685 -1687 -1689 -1693 -1691 -1684 -1684 -1684 -1683 -1680 -1682 -1684 -1682 -1682 -1681 -1676 -1674 -1676 -1678 -1680 -1679 -1681 -1681 -1678 -1673 -1673 -1672 -1672 -1672 -1679 -1684 -1685 -1679 -1686 -1684 -1682 -1693 -1736 -1754 -1759 -1749 -1723 -1699 -1692 -1683 -1679 -1679 -1684 -1702 -1728 -1743 -1771 -1782 -1796 -1799 -1782 -1762 -1749 -1721 -1702 -1695 -1694 -1695 -1700 -1702 -1701 -1705 -1710 -1713 -1712 -1709 -1698 -1693 -1685 -1673 -1675 -1674 -1675 -1679 -1681 -1687 -1693 -1698 -1697 -1697 -1694 -1692 -1683 -1676 -1674 -1679 -1684 -1698 -1709 -1718 -1732 -1739 -1747 -1752 -1755 -1746 -1740 -1726 -1720 -1714 -1697 -1691 -1688 -1691 -1697 -1703 -1706 -1694 -1699 -1697 -1698 -1691 -1691 -1691 -1691 -1692 -1690 -1683 -1683 -1687 -1687 -1684 -1685 -1690 -1701 -1704 -1693 -1677 -1675 -1677 -1676 -1681 -1689 -1709 -1716 -1714 -1703 -1699 -1703 -1710 -1713 -1721 -1716 -1721 -1724 -1723 -1720 -1719 -1714 -1705 -1685 -1681 -1684 -1696 -1701 -1692 -1673 -1670 -1674 -1674 -1670 -1666 -1662 -1655 -1655 -1655 -1650 -1632 -1625 -1626 -1620 -1614 -1596 -1574 -1564 -1549 -1536 -1521 -1491 -1487 -1479 -1472 -1444 -1421 -1413 -1397 -1386 -1362 -1351 -1336 -1316 -1303 -1279 -1267 -1241 -1216 -1207 -1183 -1168 -1148 -1125 -1108 -1094 -1077 -1057
-1644 -1654 -1639 -1651 -1655 -1653 -1657 -1660 -1672 -1686 -1685 -1683 -1685 -1684 -1685 -1686 -1684 -1684 -1683 -1681 -1679 -1678 -1679 -1680 -1677 -1676 -1671 -1673 -1681 -1684 -1687 -1678 -1679 -1674 -1669 -1668 -1670 -1667 -1673 -1674 -1678 -1680 -1682 -1686 -1688 -1687 -1684 -1694 -1725 -1736 -1741 -1735 -1716 -1698 -1693 -1685 -1682 -1682 -1686 -1699 -1715 -1724 -1748 -1760 -1777 -1770 -1765 -1745 -1734 -1711 -1699 -1695 -1695 -1696 -1701 -1706 -1710 -1710 -1709 -1707 -1706 -1698 -1689 -1685 -1679 -1672 -1676 -1680 -1682 -1682 -1683 -1689 -1692 -1693 -1691 -1690 -1690 -1689 -1679 -1676 -1675 -1679 -1685 -1696 -1713 -1724 -1736 -1742 -1749 -1751 -1751 -1745 -1739 -1724 -1721 -1717 -1699 -1692 -1694 -1696 -1700 -1713 -1712 -1696 -1701 -1700 -1700 -1695 -1693 -1691 -1693 -1694 -1689 -1682 -1683 -1689 -1688 -1683 -1683 -1687 -1699 -1703 -1693 -1680 -1677 -1680 -1679 -1675 -1678 -1699 -1710 -1708 -1699 -1694 -1705 -1714 -1718 -1729 -1726 -1734 -1734 -1732 -1730 -1731 -1729 -1720 -1697 -1690 -1692 -1702 -1705 -1690 -1670 -1668 -1672 -1672 -1669 -1666 -1661 -1651 -1651 -1653 -1649 -1631 -1622 -1622 -1616 -1611 -1599 -1580 -1566 -1542 -1535 -1519 -1492 -1486 -1477 -1463 -1447 -1419 -1406 -1386 -1377 -1359 -1353 -1335 -1314 -1300 -1273 -1261 -1236 -1209 -1201 -1180 -1168 -1149 -1121 -1107 -1095 -1077 -1051
-1628 -1642 -1629 -1643 -1649 -1648 -1652 -1656 -1664 -1679 -1680 -1678 -1681 -1680 -1681 -1684 -1685 -1684 -1680 -1678 -1678 -1676 -1674 -1673 -1669 -1670 -1670 -1670 -1685 -1690 -1682 -1679 -1679 -1670 -1667 -1667 -1668 -1668 -1673 -1674 -1678 -1680 -1685 -1687 -1688 -1691 -1689 -1694 -1709 -1715 -1719 -1717 -1705 -1695 -1694 -1689 -1685 -1687 -1690 -1694 -1700 -1707 -1725 -1733 -1747 -1748 -1743 -1730 -1723 -1705 -1697 -1698 -1697 -1698 -1708 -1717 -1729 -1719 -1711 -1701 -1698 -1687 -1679 -1678 -1676 -1675 -1680 -1688 -1690 -1690 -1691 -1690 -1691 -1686 -1685 -1686 -1688 -1687 -1677 -1679 -1677 -1680 -1686 -1697 -1715 -1729 -1739 -1744 -1747 -1746 -1740 -1736 -1732 -1722 -1719 -1714 -1700 -1695 -1700 -1701 -1701 -1709 -1704 -1697 -1700 -1704 -1699 -1697 -1697 -1691 -1693 -1694 -1691 -1689 -1689 -1689 -1687 -1682 -1681 -1683 -1694 -1696 -1691 -1680 -1679 -1684 -1681 -1668 -1667 -1681 -1686 -1685 -1686 -1686 -1704 -1714 -1719 -1735 -1739 -1747 -1746 -1745 -1745 -1745 -1740 -1734 -1710 -1694 -1693 -1699 -1700 -1685 -1672 -1671 -1670 -1668 -1665 -1665 -1661 -1652 -1651 -1648 -1644 -1633 -1621 -1617 -1610 -1606 -1596 -1577 -1565 -1540 -1532 -1519 -1497 -1499 -1477 -1466 -1449 -1423 -1408 -1382 -1372 -1360 -1356 -1337 -1310 -1298 -1269 -1258 -1233 -1208 -1197 -1174 -1163 -1148 -1121 -1110 -1088 -1077 -1043
-1612 -1626 -1617 -1632 -1641 -1643 -1650 -1654 -1658 -1673 -1673 -1672 -1675 -1675 -1680 -1683 -1682 -1681 -1677 -1676 -1678 -1674 -1671 -1670 -1666 -1666 -1667 -1664 -1683 -1691 -1677 -1682 -1681 -1673 -1671 -1670 -1670 -1670 -1675 -1678 -1682 -1682 -1686 -1688 -1689 -1695 -1695 -1694 -1699 -1700 -1702 -1701 -1696 -1697 -1700 -1695 -1690 -1689 -1690 -1685 -1686 -1692 -1707 -1706 -1721 -1727 -1724 -1719 -1717 -1705 -1696 -1700 -1699 -1700 -1713 -1724 -1735 -1721 -1711 -1696 -1691 -1678 -1670 -1671 -1674 -1678 -1682 -1691 -1693 -1696 -1698 -1689 -1688 -1679 -1680 -1683 -1686 -1686 -1678 -1680 -1679 -1678 -1685 -1698 -1714 -1725 -1736 -1739 -1736 -1735 -1731 -1726 -1724 -1719 -1715 -1709 -1701 -1699 -1701 -1701 -1701 -1700 -1697 -1696 -1698 -1705 -1696 -1697 -1699 -1691 -1690 -1690 -1691 -1691 -1689 -1687 -1687 -1685 -1682 -1684 -1691 -1694 -1686 -1679 -1680 -1685 -1680 -1667 -1665 -1669 -1668 -1667 -1678 -1683 -1704 -1714 -1720 -1739 -1744 -1752 -1753 -1754 -1753 -1751 -1741 -1737 -1719 -1698 -1692 -1688 -1686 -1677 -1667 -1665 -1663 -1660 -1659 -1658 -1655 -1651 -1651 -1645 -1640 -1632 -1618 -1612 -1603 -1597 -1587 -1573 -1563 -1544 -1531 -1520 -1510 -1508 -1483 -1471 -1446 -1432 -1418 -1387 -1375 -1364 -1360 -1337 -1308 -1294 -1270 -1256 -1230 -1210 -1200 -1172 -1160 -1145 -1121 -1108 -1086 -1074 -1040
-1600 -1611 -1604 -1618 -1629 -1634 -1644 -1651 -1652 -1665 -1665 -1667 -1666 -1667 -1675 -1679 -1676 -1675 -1673 -1674 -1677 -1674 -1673 -1674 -1668 -1665 -1666 -1669 -1687 -1695 -1684 -1678 -1677 -1675 -1675 -1674 -1671 -1681 -1681 -1683 -1686 -1684 -1684 -1686 -1687 -1692 -1691 -1689 -1692 -1692 -1690 -1689 -1688 -1693 -1698 -1696 -1691 -1683 -1682 -1678 -1681 -1686 -1696 -1700 -1711 -1713 -1717 -1709 -1707 -1703 -1701 -1699 -1700 -1701 -1710 -1716 -1721 -1712 -1704 -1692 -1685 -1673 -1664 -1664 -1672 -1677 -1682 -1689 -1692 -1697 -1698 -1689 -1686 -1678 -1681 -1682 -1683 -1683 -1677 -1677 -1676 -1675 -1679 -1693 -1709 -1717 -1722 -1723 -1720 -1720 -1718 -1713 -1713 -1710 -1706 -1698 -1698 -1697 -1698 -1700 -1702 -1700 -1698 -1695 -1699 -1699 -1692 -1693 -1694 -1692 -1688 -1687 -1690 -1689 -1684 -1683 -1687 -1687 -1685 -1684 -1685 -1685 -1679 -1673 -1674 -1682 -1682 -1675 -1670 -1664 -1662 -1664 -1676 -1682 -1698 -1711 -1719 -1739 -1738 -1752 -1754 -1754 -1749 -1744 -1728 -1725 -1716 -1697 -1689 -1677 -1674 -1669 -1661 -1659 -1658 -1657 -1656 -1653 -1650 -1651 -1652 -1643 -1637 -1631 -1620 -1613 -1597 -1590 -1581 -1569 -1562 -1548 -1531 -1520 -1517 -1504 -1482 -1473 -1449 -1432 -1420 -1390 -1378 -1367 -1361 -1336 -1307 -1291 -1268 -1253 -1229 -1212 -1204 -1173 -1159 -1138 -1119 -1102 -1077 -1066 -1040
-1587 -1601 -1593 -1603 -1616 -1622 -1635 -1642 -1641 -1654 -1655 -1659 -1655 -1653 -1665 -1668 -1664 -1663 -1666 -1670 -1674 -1669 -1671 -1670 -1668 -1668 -1675 -1680 -1696 -1700 -1698 -1674 -1674 -1674 -1676 -1674 -1672 -1687 -1685 -1686 -1689 -1688 -1682 -1690 -1684 -1687 -1685 -1683 -1688 -1688 -1685 -1683 -1683 -1687 -1690 -1691 -1688 -1679 -1677 -1678 -1679 -1682 -1691 -1697 -1708 -1716 -1717 -1706 -1706 -1711 -1712 -1700 -1700 -1700 -1700 -1701 -1701 -1697 -1694 -1685 -1679 -1671 -1663 -1663 -1675 -1678 -1685 -1686 -1688 -1692 -1693 -1686 -1684 -1681 -1685 -1685 -1680 -1679 -1676 -1675 -1673 -1673 -1675 -1686 -1702 -1709 -1707 -1705 -1704 -1704 -1702 -1699 -1699 -1698 -1694 -1691 -1694 -1694 -1695 -1696 -1698 -1699 -1696 -1695 -1697 -1691 -1693 -1691 -1690 -1690 -1686 -1684 -1688 -1687 -1683 -1682 -1684 -1685 -1682 -1678 -1673 -1673 -1671 -1666 -1667 -1677 -1679 -1677 -1671 -1662 -1664 -1666 -1675 -1678 -1692 -1706 -1714 -1732 -1731 -1742 -1743 -1745 -1740 -1733 -1716 -1711 -1705 -1689 -1680 -1667 -1664 -1658 -1654 -1654 -1651 -1649 -1651 -1650 -1648 -1649 -1648 -1638 -1633 -1627 -1619 -1613 -1595 -1587 -1575 -1564 -1557 -1543 -1529 -1514 -1507 -1496 -1478 -1468 -1449 -1431 -1419 -1389 -1376 -1362 -1355 -1331 -1291 -1285 -1263 -1250 -1227 -1212 -1202 -1167 -1152 -1132 -1114 -1097 -1073 -1063 -1035
-1576 -1584 -1581 -1592 -1610 -1614 -1624 -1630 -1633 -1643 -1646 -1648 -1647 -1645 -1654 -1658 -1654 -1653 -1661 -1668 -1670 -1663 -1665 -1666 -1665 -1672 -1682 -1687 -1699 -1701 -1697 -1674 -1674 -1675 -1676 -1673 -1672 -1686 -1689 -1687 -1688 -1688 -1682 -1682 -1684 -1684 -1685 -1685 -1686 -1685 -1681 -1680 -1681 -1686 -1688 -1688 -1685 -1677 -1674 -1675 -1676 -1677 -1691 -1700 -1714 -1718 -1721 -1717 -1721 -1726 -1727 -1702 -1695 -1694 -1692 -1691 -1690 -1689 -1688 -1681 -1675 -1671 -1665 -1666 -1679 -1682 -1686 -1686 -1686 -1690 -1691 -1684 -1684 -1682 -1687 -1687 -1682 -1681 -1681 -1675 -1673 -1674 -1673 -1679 -1692 -1697 -1690 -1691 -1692 -1691 -1688 -1686 -1687 -1690 -1688 -1688 -1691 -1691 -1692 -1692 -1691 -1692 -1691 -1693 -1693 -1691 -1697 -1693 -1687 -1687 -1684 -1685 -1687 -1684 -1683 -1683 -1682 -1683 -1678 -1674 -1666 -1666 -1666 -1662 -1663 -1672 -1673 -1671 -1667 -1663 -1663 -1665 -1672 -1677 -1687 -1700 -1706 -1723 -1719 -1725 -1726 -1727 -1725 -1722 -1709 -1701 -1692 -1681 -1671 -1655 -1651 -1647 -1646 -1647 -1643 -1643 -1646 -1645 -1643 -1641 -1637 -1628 -1624 -1623 -1611 -1606 -1591 -1582 -1565 -1552 -1547 -1534 -1526 -1513 -1500 -1490 -1474 -1466 -1446 -1428 -1415 -1387 -1375 -1358 -1349 -1325 -1288 -1281 -1257 -1245 -1222 -1204 -1193 -1160 -1145 -1127 -1104 -1090 -1071 -1063 -1032
-1564 -1568 -1570 -1584 -1600 -1602 -1609 -1615 -1625 -1636 -1637 -1635 -1639 -1644 -1652 -1655 -1653 -1652 -1661 -1667 -1668 -1664 -1666 -1662 -1664 -1670 -1672 -1686 -1692 -1695 -1688 -1674 -1673 -1676 -1675 -1676 -1675 -1685 -1694 -1693 -1685 -1683 -1680 -1683 -1686 -1685 -1686 -1688 -1686 -1684 -1679 -1678 -1678 -1682 -1685 -1685 -1683 -1676 -1672 -1674 -1674 -1676 -1694 -1706 -1718 -1727 -1730 -1733 -1737 -1743 -1712 -1699 -1689 -1687 -1685 -1685 -1687 -1684 -1684 -1682 -1678 -1674 -1669 -1671 -1680 -1684 -1682 -1687 -1688 -1692 -1691 -1684 -1683 -1681 -1684 -1686 -1682 -1680 -1679 -1677 -1679 -1675 -1672 -1673 -1679 -1680 -1676 -1677 -1682 -1682 -1680 -1676 -1678 -1688 -1690 -1688 -1688 -1688 -1688 -1688 -1689 -1688 -1688 -1687 -1692 -1692 -1695 -1690 -1686 -1683 -1681 -1683 -1684 -1684 -1687 -1685 -1682 -1681 -1679 -1674 -1663 -1662 -1665 -1659 -1659 -1668 -1667 -1662 -1661 -1659 -1659 -1659 -1668 -1673 -1681 -1691 -1696 -1709 -1706 -1706 -1709 -1709 -1707 -1707 -1697 -1689 -1677 -1665 -1656 -1641 -1639 -1640 -1642 -1639 -1636 -1638 -1642 -1637 -1637 -1633 -1629 -1621 -1617 -1617 -1601 -1597 -1582 -1573 -1555 -1542 -1536 -1526 -1518 -1510 -1492 -1486 -1467 -1460 -1443 -1423 -1412 -1388 -1377 -1361 -1351 -1326 -1285 -1277 -1253 -1245 -1223 -1197 -1185 -1161 -1149 -1124 -1097 -1086 -1064 -1061 -1026
-1547 -1549 -1560 -1575 -1584 -1587 -1595 -1601 -1614 -1626 -1628 -1622 -1628 -1641 -1651 -1653 -1654 -1655 -1662 -1664 -1662 -1661 -1663 -1659 -1663 -1668 -1667 -1680 -1681 -1682 -1676 -1674 -1674 -1674 -1673 -1678 -1678 -1685 -1705 -1704 -1685 -1680 -1679 -1683 -1686 -1687 -1688 -1689 -1685 -1681 -1676 -1676 -1678 -1681 -1683 -1686 -1685 -1679 -1676 -1674 -1676 -1679 -1694 -1709 -1722 -1734 -1738 -1743 -1743 -1747 -1711 -1699 -1683 -1680 -1677 -1679 -1684 -1681 -1679 -1679 -1678 -1675 -1670 -1672 -1679 -1681 -1681 -1686 -1688 -1691 -1689 -1681 -1683 -1680 -1684 -1685 -1680 -1677 -1678 -1685 -1681 -1674 -1670 -1669 -1671 -1669 -1669 -1671 -1673 -1674 -1673 -1671 -1675 -1689 -1691 -1689 -1687 -1687 -1685 -1685 -1688 -1688 -1686 -1686 -1685 -1689 -1682 -1682 -1679 -1675 -1672 -1674 -1677 -1684 -1690 -1688 -1684 -1681 -1674 -1669 -1660 -1660 -1668 -1663 -1661 -1665 -1663 -1658 -1655 -1652 -1652 -1653 -1661 -1667 -1673 -1683 -1690 -1695 -1693 -1694 -1694 -1693 -1689 -1687 -1678 -1671 -1661 -1648 -1640 -1634 -1633 -1638 -1640 -1635 -1631 -1632 -1634 -1630 -1628 -1623 -1620 -1613 -1609 -1609 -1590 -1584 -1571 -1562 -1546 -1530 -1523 -1514 -1508 -1494 -1482 -1481 -1465 -1462 -1438 -1415 -1404 -1383 -1373 -1355 -1347 -1323 -1279 -1270 -1251 -1246 -1228 -1199 -1185 -1163 -1150 -1125 -1094 -1082 -1057 -1048 -1013
-1531 -1532 -1549 -1562 -1574 -1573 -1586 -1592 -1608 -1618 -1620 -1615 -1620 -1638 -1650 -1652 -1652 -1654 -1658 -1658 -1656 -1657 -1656 -1658 -1661 -1667 -1665 -1674 -1674 -1672 -1671 -1675 -1677 -1676 -1674 -1677 -1678 -1686 -1710 -1712 -1690 -1681 -1680 -1678 -1686 -1686 -1688 -1687 -1681 -1679 -1680 -1680 -1684 -1686 -1688 -1692 -1693 -1688 -1683 -1677 -1677 -1682 -1695 -1706 -1720 -1732 -1734 -1739 -1739 -1744 -1716 -1702 -1683 -1677 -1672 -1671 -1675 -1678 -1676 -1673 -1673 -1672 -1671 -1673 -1678 -1680 -1685 -1688 -1688 -1689 -1688 -1683 -1678 -1677 -1682 -1682 -1676 -1674 -1676 -1683 -1682 -1675 -1669 -1666 -1666 -1664 -1666 -1668 -1669 -1669 -1667 -1669 -1674 -1684 -1686 -1687 -1688 -1687 -1686 -1685 -1686 -1686 -1686 -1689 -1682 -1684 -1675 -1676 -1671 -1671 -1667 -1666 -1667 -1677 -1682 -1684 -1682 -1677 -1667 -1661 -1657 -1660 -1675 -1670 -1663 -1661 -1659 -1656 -1655 -1649 -1646 -1647 -1654 -1657 -1666 -1678 -1685 -1684 -1685 -1689 -1682 -1677 -1669 -1663 -1654 -1650 -1644 -1636 -1633 -1631 -1632 -1636 -1637 -1633 -1630 -1628 -1623 -1621 -1620 -1614 -1612 -1604 -1598 -1600 -1578 -1572 -1560 -1551 -1536 -1519 -1510 -1501 -1498 -1483 -1474 -1476 -1463 -1454 -1431 -1409 -1396 -1379 -1368 -1346 -1337 -1313 -1277 -1269 -1247 -1242 -1223 -1199 -1187 -1163 -1146 -1118 -1089 -1079 -1057 -1036 -1001
-1511 -1515 -1534 -1547 -1554 -1562 -1578 -1585 -1603 -1612 -1613 -1614 -1617 -1634 -1650 -1650 -1648 -1649 -1652 -1654 -1656 -1655 -1657 -1660 -1664 -1668 -1668 -1668 -1669 -1670 -1670 -1676 -1679 -1679 -1680 -1682 -1680 -1679 -1701 -1703 -1688 -1681 -1678 -1682 -1683 -1681 -1681 -1681 -1678 -1681 -1685 -1685 -1687 -1697 -1700 -1702 -1702 -1696 -1690 -1680 -1678 -1681 -1694 -1700 -1714 -1729 -1729 -1731 -1729 -1729 -1714 -1704 -1688 -1682 -1674 -1671 -1670 -1677 -1678 -1674 -1673 -1673 -1674 -1676 -1680 -1677 -1691 -1695 -1692 -1687 -1684 -1675 -1675 -1675 -1676 -1677 -1672 -1669 -1671 -1678 -1681 -1673 -1669 -1664 -1663 -1664 -1673 -1668 -1671 -1669 -1666 -1667 -1671 -1679 -1681 -1684 -1686 -1687 -1687 -1685 -1682 -1687 -1685 -1686 -1678 -1678 -1668 -1672 -1668 -1670 -1668 -1668 -1669 -1670 -1671 -1674 -1674 -1670 -1661 -1656 -1653 -1657 -1672 -1667 -1660 -1655 -1653 -1653 -1653 -1646 -1642 -1643 -1648 -1649 -1658 -1668 -1673 -1675 -1677 -1682 -1668 -1659 -1650 -1644 -1636 -1632 -1625 -1626 -1626 -1626 -1627 -1629 -1628 -1626 -1625 -1623 -1614 -1614 -1617 -1614 -1611 -1600 -1592 -1590 -1571 -1565 -1551 -1543 -1526 -1512 -1504 -1495 -1491 -1476 -1468 -1467 -1454 -1446 -1418 -1404 -1394 -1374 -1364 -1343 -1332 -1309 -1276 -1268 -1241 -1232 -1210 -1190 -1181 -1157 -1143 -1113 -1085 -1073 -1053 -1027 -995
-1497 -1504 -1517 -1533 -1546 -1555 -1571 -1576 -1591 -1606 -1609 -1612 -1615 -1632 -1647 -1648 -1648 -1648 -1650 -1652 -1654 -1657 -1662 -1665 -1669 -1670 -1668 -1666 -1667 -1673 -1673 -1677 -1677 -1677 -1680 -1683 -1682 -1677 -1688 -1689 -1683 -1680 -1676 -1672 -1679 -1678 -1678 -1677 -1679 -1681 -1682 -1682 -1689 -1705 -1710 -1707 -1704 -1693 -1689 -1682 -1678 -1679 -1686 -1691 -1701 -1716 -1719 -1719 -1717 -1718 -1703 -1696 -1687 -1684 -1680 -1676 -1673 -1675 -1677 -1675 -1673 -1674 -1678 -1680 -1685 -1684 -1699 -1700 -1696 -1685 -1681 -1676 -1680 -1678 -1674 -1675 -1674 -1669 -1667 -1674 -1675 -1669 -1668 -1668 -1664 -1666 -1673 -1675 -1670 -1669 -1670 -1668 -1669 -1677 -1679 -1681 -1684 -1685 -1684 -1681 -1677 -1679 -1679 -1677 -1672 -1673 -1670 -1668 -1667 -1668 -1673 -1677 -1680 -1668 -1664 -1664 -1664 -1662 -1656 -1651 -1646 -1646 -1654 -1654 -1650 -1649 -1649 -1650 -1651 -1644 -1639 -1640 -1643 -1642 -1651 -1657 -1659 -1667 -1672 -1666 -1649 -1640 -1633 -1630 -1622 -1619 -1616 -1619 -1619 -1618 -1619 -1618 -1616 -1618 -1618 -1618 -1613 -1616 -1619 -1613 -1609 -1597 -1589 -1582 -1565 -1560 -1546 -1537 -1519 -1509 -1502 -1488 -1484 -1469 -1457 -1459 -1439 -1433 -1413 -1395 -1386 -1366 -1355 -1337 -1328 -1307 -1275 -1266 -1240 -1227 -1201 -1183 -1172 -1145 -1134 -1113 -1081 -1065 -1044 -1021 -990
-1487 -1490 -1503 -1520 -1541 -1552 -1569 -1572 -1583 -1595 -1600 -1606 -1611 -1626 -1641 -1645 -1646 -1646 -1648 -1649 -1649 -1656 -1665 -1673 -1672 -1673 -1670 -1667 -1671 -1675 -1683 -1676 -1675 -1676 -1676 -1680 -1680 -1676 -1681 -1682 -1681 -1679 -1675 -1675 -1676 -1678 -1678 -1678 -1681 -1680 -1674 -1676 -1689 -1704 -1709 -1709 -1704 -1691 -1686 -1682 -1676 -1675 -1679 -1678 -1686 -1700 -1702 -1703 -1703 -1706 -1690 -1686 -1679 -1681 -1681 -1678 -1676 -1674 -1673 -1672 -1670 -1673 -1682 -1684 -1689 -1698 -1707 -1707 -1702 -1689 -1681 -1679 -1679 -1679 -1676 -1677 -1676 -1672 -1665 -1668 -1670 -1668 -1671 -1669 -1668 -1670 -1681 -1681 -1670 -1671 -1674 -1671 -1670 -1674 -1675 -1675 -1678 -1679 -1678 -1677 -1674 -1670 -1669 -1668 -1667 -1667 -1663 -1663 -1667 -1666 -1675 -1680 -1680 -1664 -1658 -1657 -1656 -1655 -1651 -1646 -1638 -1636 -1638 -1643 -1642 -1643 -1644 -1650 -1650 -1643 -1637 -1637 -1642 -1639 -1649 -1651 -1649 -1656 -1659 -1645 -1628 -1619 -1613 -1612 -1610 -1610 -1610 -1610 -1610 -1610 -1610 -1610 -1609 -1611 -1610 -1609 -1608 -1613 -1613 -1607 -1602 -1591 -1585 -1577 -1560 -1554 -1542 -1532 -1512 -1505 -1498 -1479 -1478 -1465 -1450 -1447 -1424 -1421 -1401 -1386 -1379 -1358 -1346 -1329 -1320 -1299 -1273 -1263 -1241 -1230 -1203 -1181 -1169 -1139 -1127 -1103 -1080 -1063 -1036 -1016 -990
-1476 -1485 -1491 -1508 -1533 -1545 -1561 -1565 -1576 -1588 -1592 -1601 -1604 -1615 -1630 -1637 -1643 -1643 -1646 -1648 -1648 -1658 -1667 -1676 -1676 -1677 -1669 -1668 -1667 -1669 -1680 -1670 -1671 -1675 -1675 -1677 -1680 -1674 -1677 -1677 -1678 -1676 -1676 -1676 -1676 -1678 -1678 -1678 -1681 -1678 -1671 -1675 -1689 -1700 -1706 -1712 -1709 -1694 -1687 -1681 -1676 -1675 -1678 -1674 -1675 -1687 -1689 -1688 -1688 -1686 -1681 -1679 -1677 -1679 -1681 -1679 -1676 -1673 -1671 -1669 -1667 -1674 -1683 -1686 -1692 -1713 -1721 -1718 -1712 -1697 -1688 -1675 -1673 -1677 -1675 -1674 -1674 -1671 -1663 -1659 -1668 -1668 -1670 -1669 -1673 -1676 -1686 -1683 -1678 -1679 -1677 -1672 -1672 -1674 -1673 -1669 -1670 -1671 -1673 -1674 -1673 -1664 -1663 -1663 -1661 -1663 -1662 -1655 -1663 -1661 -1670 -1674 -1670 -1655 -1652 -1650 -1648 -1646 -1643 -1639 -1631 -1630 -1631 -1638 -1640 -1642 -1641 -1645 -1647 -1642 -1635 -1635 -1642 -1640 -1649 -1645 -1638 -1635 -1627 -1623 -1608 -1600 -1594 -1593 -1595 -1598 -1601 -1604 -1604 -1604 -1604 -1605 -1605 -1604 -1600 -1597 -1594 -1598 -1599 -1597 -1594 -1585 -1584 -1576 -1558 -1550 -1538 -1530 -1512 -1500 -1492 -1471 -1468 -1459 -1440 -1438 -1414 -1412 -1393 -1378 -1372 -1351 -1340 -1323 -1314 -1292 -1270 -1260 -1242 -1232 -1206 -1180 -1167 -1140 -1128 -1095 -1080 -1063 -1033 -1015 -987
-1464 -1475 -1481 -1497 -1508 -1533 -1549 -1552 -1568 -1584 -1584 -1601 -1602 -1609 -1623 -1631 -1638 -1639 -1644 -1647 -1653 -1665 -1673 -1677 -1677 -1674 -1666 -1663 -1661 -1663 -1671 -1669 -1669 -1672 -1672 -1674 -1677 -1676 -1674 -1674 -1678 -1677 -1678 -1673 -1679 -1680 -1680 -1679 -1679 -1678 -1674 -1675 -1685 -1696 -1701 -1710 -1708 -1695 -1687 -1681 -1682 -1681 -1682 -1676 -1675 -1676 -1686 -1682 -1680 -1677 -1675 -1674 -1673 -1673 -1678 -1680 -1677 -1672 -1670 -1668 -1667 -1675 -1683 -1686 -1698 -1719 -1734 -1725 -1717 -1701 -1691 -1673 -1671 -1674 -1670 -1670 -1672 -1671 -1664 -1656 -1666 -1664 -1664 -1664 -1671 -1675 -1683 -1680 -1678 -1680 -1676 -1670 -1671 -1673 -1669 -1664 -1665 -1666 -1668 -1670 -1673 -1660 -1660 -1660 -1657 -1657 -1659 -1654 -1659 -1656 -1660 -1662 -1657 -1647 -1643 -1639 -1637 -1636 -1633 -1630 -1627 -1628 -1634 -1650 -1657 -1657 -1650 -1644 -1644 -1643 -1637 -1637 -1643 -1639 -1644 -1637 -1629 -1615 -1614 -1609 -1598 -1594 -1583 -1577 -1580 -1586 -1592 -1598 -1600 -1599 -1597 -1596 -1593 -1592 -1589 -1587 -1583 -1586 -1586 -1587 -1586 -1584 -1583 -1577 -1558 -1550 -1535 -1529 -1515 -1496 -1485 -1465 -1458 -1447 -1428 -1429 -1405 -1401 -1385 -1367 -1358 -1339 -1332 -1320 -1311 -1287 -1264 -1257 -1242 -1230 -1207 -1177 -1163 -1139 -1128 -1090 -1081 -1061 -1032 -1013 -987
-1454 -1465 -1473 -1487 -1506 -1521 -1538 -1541 -1557 -1573 -1579 -1596 -1601 -1610 -1620 -1626 -1633 -1635 -1642 -1645 -1649 -1664 -1670 -1670 -1668 -1667 -1661 -1659 -1662 -1663 -1670 -1674 -1672 -1672 -1673 -1675 -1676 -1676 -1674 -1677 -1681 -1681 -1679 -1678 -1678 -1681 -1681 -1682 -1681 -1680 -1674 -1673 -1682 -1691 -1695 -1699 -1697 -1689 -1685 -1683 -1685 -1683 -1684 -1683 -1681 -1680 -1687 -1682 -1684 -1703 -1674 -1671 -1668 -1669 -1676 -1680 -1677 -1669 -1668 -1668 -1668 -1674 -1682 -1686 -1699 -1725 -1728 -1719 -1713 -1700 -1691 -1675 -1674 -1668 -1665 -1666 -1671 -1671 -1663 -1662 -1667 -1662 -1659 -1661 -1666 -1668 -1677 -1674 -1671 -1672 -1668 -1664 -1665 -1666 -1663 -1660 -1663 -1665 -1667 -1667 -1671 -1661 -1657 -1656 -1654 -1653 -1656 -1656 -1655 -1651 -1648 -1648 -1645 -1637 -1633 -1626 -1625 -1628 -1629 -1625 -1625 -1630 -1653 -1685 -1697 -1693 -1675 -1651 -1646 -1643 -1639 -1640 -1642 -1643 -1638 -1635 -1630 -1614 -1613 -1606 -1599 -1596 -1580 -1574 -1576 -1582 -1585 -1589 -1591 -1587 -1586 -1581 -1579 -1579 -1580 -1579 -1574 -1578 -1580 -1580 -1581 -1582 -1580 -1575 -1559 -1550 -1532 -1525 -1512 -1490 -1478 -1460 -1454 -1436 -1417 -1415 -1393 -1385 -1374 -1358 -1348 -1328 -1322 -1311 -1302 -1282 -1261 -1254 -1232 -1220 -1202 -1176 -1162 -1137 -1125 -1090 -1084 -1066 -1028 -1013 -988
-1443 -1455 -1466 -1486 -1499 -1510 -1524 -1528 -1546 -1561 -1573 -1588 -1596 -1608 -1615 -1618 -1627 -1631 -1639 -1641 -1643 -1655 -1660 -1659 -1660 -1659 -1661 -1660 -1666 -1667 -1665 -1677 -1676 -1674 -1676 -1676 -1675 -1679 -1679 -1681 -1681 -1680 -1678 -1673 -1672 -1676 -1678 -1682 -1683 -1683 -1681 -1682 -1691 -1694 -1694 -1691 -1689 -1686 -1684 -1680 -1681 -1680 -1685 -1679 -1682 -1680 -1685 -1683 -1687 -1699 -1674 -1672 -1674 -1673 -1678 -1680 -1676 -1670 -1668 -1668 -1668 -1672 -1678 -1682 -1691 -1701 -1707 -1701 -1698 -1689 -1682 -1675 -1674 -1665 -1662 -1664 -1668 -1667 -1664 -1667 -1673 -1663 -1662 -1663 -1662 -1662 -1665 -1667 -1663 -1664 -1663 -1657 -1657 -1659 -1659 -1659 -1662 -1665 -1666 -1665 -1666 -1660 -1656 -1652 -1650 -1650 -1652 -1654 -1643 -1646 -1639 -1638 -1633 -1628 -1624 -1617 -1616 -1622 -1625 -1621 -1622 -1632 -1674 -1717 -1730 -1724 -1699 -1659 -1649 -1640 -1637 -1636 -1639 -1645 -1637 -1638 -1636 -1618 -1615 -1604 -1602 -1599 -1582 -1578 -1581 -1581 -1578 -1579 -1578 -1576 -1575 -1572 -1571 -1570 -1569 -1568 -1563 -1567 -1571 -1575 -1576 -1575 -1572 -1571 -1563 -1550 -1528 -1519 -1504 -1483 -1473 -1457 -1439 -1430 -1406 -1403 -1382 -1374 -1364 -1352 -1342 -1319 -1312 -1299 -1291 -1275 -1251 -1249 -1223 -1210 -1194 -1171 -1158 -1136 -1124 -1088 -1077 -1065 -1027 -1014 -988
-1433 -1447 -1460 -1485 -1494 -1500 -1510 -1518 -1541 -1557 -1567 -1582 -1591 -1602 -1608 -1613 -1622 -1626 -1634 -1637 -1643 -1650 -1653 -1657 -1656 -1655 -1660 -1661 -1667 -1669 -1675 -1677 -1676 -1672 -1672 -1672 -1674 -1673 -1681 -1682 -1677 -1676 -1677 -1679 -1673 -1675 -1677 -1681 -1684 -1686 -1690 -1692 -1698 -1696 -1694 -1689 -1687 -1685 -1682 -1678 -1678 -1678 -1682 -1677 -1684 -1681 -1681 -1680 -1683 -1676 -1673 -1672 -1675 -1677 -1681 -1680 -1676 -1672 -1670 -1668 -1668 -1672 -1672 -1674 -1680 -1676 -1688 -1684 -1681 -1677 -1673 -1673 -1671 -1663 -1660 -1661 -1666 -1666 -1666 -1675 -1677 -1670 -1670 -1668 -1658 -1654 -1656 -1656 -1655 -1657 -1660 -1654 -1653 -1656 -1657 -1659 -1663 -1665 -1664 -1662 -1661 -1656 -1655 -1652 -1653 -1649 -1644 -1649 -1637 -1645 -1633 -1628 -1622 -1619 -1616 -1610 -1610 -1614 -1619 -1617 -1620 -1631 -1679 -1725 -1737 -1728 -1705 -1663 -1652 -1642 -1635 -1633 -1637 -1643 -1638 -1641 -1639 -1621 -1618 -1600 -1600 -1598 -1583 -1579 -1579 -1577 -1573 -1569 -1567 -1567 -1568 -1567 -1567 -1564 -1556 -1555 -1556 -1555 -1559 -1568 -1568 -1566 -1565 -1564 -1558 -1545 -1523 -1516 -1499 -1481 -1473 -1456 -1436 -1427 -1396 -1390 -1373 -1369 -1355 -1341 -1333 -1312 -1303 -1290 -1284 -1265 -1248 -1240 -1221 -1210 -1190 -1164 -1153 -1133 -1123 -1086 -1066 -1055 -1026 -1011 -983
-1422 -1439 -1449 -1469 -1480 -1488 -1505 -1514 -1537 -1556 -1559 -1578 -1585 -1598 -1611 -1616 -1623 -1625 -1632 -1635 -1645 -1648 -1647 -1660 -1654 -1653 -1658 -1658 -1666 -1668 -1665 -1677 -1677 -1672 -1668 -1668 -1674 -1675 -1678 -1678 -1674 -1674 -1677 -1682 -1680 -1684 -1684 -1682 -1685 -1687 -1689 -1691 -1693 -1691 -1691 -1685 -1682 -1678 -1678 -1677 -1682 -1682 -1680 -1676 -1681 -1680 -1677 -1679 -1681 -1686 -1679 -1678 -1679 -1679 -1678 -1677 -1673 -1670 -1668 -1664 -1665 -1668 -1668 -1667 -1670 -1666 -1678 -1673 -1670 -1669 -1668 -1666 -1664 -1660 -1657 -1660 -1669 -1670 -1671 -1678 -1679 -1673 -1672 -1666 -1655 -1651 -1648 -1648 -1647 -1653 -1660 -1655 -1652 -1655 -1657 -1660 -1664 -1665 -1664 -1663 -1662 -1655 -1655 -1655 -1653 -1651 -1640 -1643 -1635 -1645 -1630 -1624 -1615 -1610 -1611 -1610 -1608 -1608 -1610 -1611 -1617 -1626 -1661 -1699 -1709 -1700 -1683 -1654 -1645 -1638 -1634 -1632 -1635 -1643 -1640 -1641 -1638 -1623 -1619 -1598 -1594 -1592 -1579 -1574 -1573 -1573 -1570 -1564 -1562 -1559 -1559 -1560 -1561 -1557 -1544 -1543 -1548 -1547 -1549 -1557 -1557 -1558 -1560 -1553 -1545 -1536 -1521 -1513 -1495 -1479 -1471 -1453 -1431 -1421 -1389 -1383 -1367 -1361 -1350 -1333 -1326 -1310 -1301 -1286 -1280 -1258 -1238 -1234 -1217 -1210 -1190 -1162 -1152 -1130 -1120 -1088 -1062 -1041 -1023 -1006 -977
-1408 -1427 -1435 -1448 -1464 -1478 -1499 -1507 -1525 -1546 -1554 -1575 -1583 -1595 -1609 -1615 -1618 -1621 -1633 -1638 -1645 -1645 -1644 -1661 -1653 -1652 -1653 -1657 -1665 -1668 -1665 -1673 -1676 -1670 -1665 -1667 -1674 -1678 -1676 -1676 -1675 -1674 -1676 -1681 -1683 -1690 -1689 -1682 -1683 -1686 -1688 -1689 -1688 -1685 -1685 -1681 -1678 -1674 -1674 -1677 -1687 -1689 -1681 -1673 -1677 -1676 -1675 -1681 -1685 -1697 -1690 -1689 -1685 -1679 -1667 -1667 -1668 -1668 -1666 -1664 -1664 -1667 -1667 -1667 -1671 -1664 -1671 -1665 -1661 -1663 -1663 -1657 -1659 -1658 -1658 -1662 -1671 -1671 -1669 -1673 -1675 -1667 -1665 -1659 -1652 -1649 -1641 -1643 -1658 -1668 -1673 -1661 -1655 -1652 -1653 -1657 -1659 -1660 -1661 -1662 -1661 -1656 -1653 -1657 -1649 -1649 -1637 -1642 -1636 -1641 -1628 -1623 -1614 -1604 -1608 -1613 -1610 -1605 -1607 -1608 -1614 -1618 -1636 -1658 -1665 -1664 -1655 -1637 -1632 -1628 -1629 -1630 -1631 -1639 -1640 -1639 -1636 -1624 -1620 -1600 -1590 -1586 -1578 -1574 -1567 -1566 -1565 -1559 -1556 -1551 -1549 -1547 -1548 -1546 -1538 -1535 -1539 -1540 -1541 -1547 -1546 -1551 -1554 -1550 -1537 -1533 -1521 -1511 -1493 -1477 -1467 -1447 -1430 -1416 -1384 -1381 -1365 -1361 -1347 -1330 -1323 -1306 -1295 -1281 -1275 -1250 -1233 -1229 -1211 -1205 -1187 -1161 -1151 -1127 -1115 -1089 -1060 -1039 -1022 -1000 -974
-1398 -1418 -1427 -1435 -1454 -1468 -1489 -1499 -1518 -1535 -1549 -1572 -1581 -1589 -1602 -1606 -1609 -1614 -1629 -1637 -1643 -1644 -1648 -1660 -1654 -1651 -1658 -1655 -1664 -1672 -1669 -1665 -1668 -1667 -1665 -1669 -1673 -1675 -1675 -1675 -1676 -1674 -1675 -1680 -1682 -1685 -1684 -1681 -1682 -1682 -1686 -1687 -1682 -1681 -1683 -1681 -1676 -1672 -1673 -1678 -1687 -1688 -1679 -1670 -1678 -1670 -1674 -1682 -1686 -1698 -1692 -1688 -1679 -1672 -1657 -1658 -1665 -1668 -1667 -1664 -1665 -1669 -1672 -1673 -1681 -1666 -1669 -1661 -1657 -1658 -1657 -1655 -1655 -1658 -1658 -1659 -1664 -1664 -1659 -1666 -1667 -1659 -1658 -1656 -1651 -1649 -1644 -1652 -1693 -1709 -1706 -1675 -1660 -1648 -1649 -1652 -1654 -1653 -1656 -1658 -1661 -1660 -1657 -1653 -1644 -1644 -1633 -1642 -1635 -1639 -1625 -1623 -1614 -1604 -1606 -1609 -1607 -1606 -1609 -1611 -1613 -1614 -1621 -1629 -1634 -1642 -1638 -1627 -1623 -1621 -1623 -1624 -1629 -1638 -1637 -1634 -1633 -1621 -1615 -1601 -1587 -1583 -1577 -1572 -1562 -1559 -1555 -1551 -1551 -1547 -1545 -1538 -1536 -1536 -1533 -1530 -1532 -1534 -1535 -1537 -1538 -1540 -1543 -1547 -1534 -1533 -1519 -1508 -1490 -1473 -1464 -1445 -1433 -1414 -1383 -1378 -1368 -1358 -1346 -1327 -1319 -1299 -1287 -1273 -1267 -1243 -1229 -1224 -1207 -1199 -1180 -1157 -1147 -1124 -1112 -1088 -1061 -1038 -1023 -995 -972
-1389 -1412 -1426 -1436 -1450 -1459 -1478 -1494 -1515 -1530 -1544 -1564 -1574 -1584 -1597 -1601 -1606 -1611 -1624 -1631 -1638 -1643 -1648 -1654 -1656 -1652 -1659 -1657 -1666 -1669 -1663 -1660 -1663 -1666 -1668 -1671 -1673 -1678 -1674 -1674 -1674 -1674 -1677 -1682 -1684 -1685 -1683 -1682 -1682 -1682 -1683 -1683 -1678 -1678 -1682 -1682 -1678 -1673 -1673 -1677 -1681 -1679 -1673 -1672 -1671 -1670 -1672 -1678 -1681 -1691 -1684 -1679 -1668 -1664 -1657 -1658 -1664 -1666 -1664 -1662 -1662 -1669 -1674 -1676 -1682 -1668 -1664 -1659 -1658 -1656 -1654 -1656 -1658 -1659 -1658 -1658 -1658 -1658 -1655 -1663 -1662 -1656 -1658 -1656 -1652 -1650 -1656 -1674 -1727 -1747 -1742 -1696 -1674 -1653 -1651 -1651 -1650 -1650 -1653 -1655 -1656 -1652 -1645 -1646 -1640 -1636 -1627 -1631 -1626 -1628 -1620 -1618 -1611 -1605 -1605 -1602 -1600 -1604 -1612 -1615 -1613 -1613 -1616 -1618 -1622 -1635 -1634 -1627 -1622 -1615 -1618 -1620 -1625 -1630 -1631 -1627 -1625 -1619 -1614 -1598 -1588 -1583 -1570 -1564 -1556 -1554 -1552 -1547 -1545 -1541 -1538 -1532 -1527 -1527 -1525 -1523 -1523 -1523 -1523 -1527 -1527 -1528 -1529 -1538 -1527 -1525 -1512 -1501 -1484 -1469 -1462 -1446 -1429 -1411 -1383 -1377 -1368 -1361 -1348 -1328 -1321 -1302 -1288 -1268 -1260 -1240 -1226 -1221 -1205 -1196 -1177 -1154 -1143 -1121 -1111 -1089 -1066 -1041 -1021 -995 -971
-1378 -1402 -1417 -1432 -1443 -1450 -1468 -1483 -1507 -1524 -1536 -1552 -1563 -1578 -1592 -1597 -1606 -1611 -1620 -1627 -1637 -1643 -1647 -1650 -1656 -1655 -1654 -1657 -1664 -1664 -1661 -1661 -1665 -1668 -1669 -1674 -1676 -1677 -1676 -1674 -1674 -1676 -1679 -1682 -1687 -1693 -1691 -1682 -1680 -1680 -1680 -1679 -1676 -1676 -1679 -1685 -1685 -1680 -1678 -1676 -1676 -1676 -1675 -1670 -1671 -1671 -1675 -1674 -1674 -1676 -1670 -1667 -1660 -1658 -1656 -1658 -1661 -1663 -1665 -1665 -1664 -1666 -1671 -1673 -1675 -1667 -1658 -1657 -1658 -1657 -1655 -1654 -1656 -1659 -1664 -1664 -1658 -1655 -1654 -1657 -1663 -1657 -1660 -1661 -1655 -1654 -1662 -1677 -1731 -1749 -1755 -1717 -1693 -1665 -1659 -1651 -1647 -1647 -1651 -1652 -1652 -1640 -1638 -1637 -1636 -1631 -1623 -1619 -1617 -1617 -1613 -1610 -1605 -1602 -1603 -1599 -1597 -1604 -1613 -1615 -1612 -1612 -1616 -1618 -1622 -1633 -1632 -1626 -1622 -1613 -1617 -1621 -1625 -1627 -1625 -1621 -1619 -1617 -1613 -1596 -1590 -1584 -1567 -1560 -1553 -1553 -1553 -1543 -1537 -1531 -1530 -1524 -1518 -1517 -1517 -1514 -1508 -1507 -1510 -1515 -1515 -1516 -1518 -1530 -1517 -1514 -1502 -1496 -1483 -1468 -1462 -1447 -1437 -1410 -1386 -1380 -1367 -1361 -1349 -1329 -1324 -1306 -1293 -1269 -1257 -1242 -1223 -1217 -1202 -1194 -1176 -1155 -1144 -1122 -1113 -1091 -1067 -1040 -1018 -995 -971
-1368 -1388 -1400 -1419 -1437 -1446 -1461 -1475 -1503 -1517 -1528 -1543 -1553 -1569 -1583 -1588 -1601 -1608 -1619 -1625 -1638 -1645 -1646 -1650 -1654 -1654 -1652 -1654 -1660 -1661 -1660 -1660 -1663 -1665 -1666 -1673 -1678 -1678 -1673 -1673 -1677 -1678 -1682 -1683 -1689 -1693 -1690 -1678 -1675 -1677 -1678 -1676 -1676 -1680 -1685 -1697 -1700 -1690 -1684 -1678 -1683 -1687 -1687 -1666 -1673 -1671 -1676 -1675 -1672 -1661 -1662 -1658 -1655 -1656 -1661 -1661 -1658 -1661 -1663 -1668 -1665 -1663 -1668 -1667 -1667 -1663 -1655 -1654 -1655 -1656 -1657 -1657 -1658 -1658 -1665 -1667 -1661 -1657 -1652 -1652 -1661 -1657 -1662 -1666 -1661 -1659 -1667 -1675 -1716 -1730 -1742 -1721 -1702 -1675 -1668 -1654 -1647 -1649 -1654 -1653 -1650 -1636 -1634 -1632 -1626 -1628 -1617 -1616 -1615 -1615 -1609 -1605 -1598 -1595 -1596 -1597 -1598 -1605 -1611 -1612 -1611 -1613 -1616 -1619 -1622 -1628 -1626 -1623 -1620 -1614 -1619 -1623 -1629 -1629 -1624 -1620 -1619 -1617 -1613 -1601 -1589 -1582 -1571 -1565 -1555 -1552 -1550 -1537 -1529 -1525 -1523 -1516 -1509 -1507 -1505 -1500 -1493 -1492 -1496 -1503 -1504 -1508 -1511 -1519 -1510 -1506 -1500 -1497 -1485 -1466 -1459 -1444 -1436 -1413 -1387 -1383 -1369 -1360 -1346 -1327 -1321 -1306 -1295 -1271 -1260 -1242 -1223 -1218 -1200 -1190 -1174 -1155 -1145 -1126 -1117 -1089 -1059 -1036 -1017 -995 -970
-1361 -1381 -1389 -1408 -1432 -1441 -1457 -1469 -1498 -1510 -1523 -1535 -1543 -1561 -1577 -1584 -1605 -1614 -1621 -1625 -1636 -1643 -1646 -1649 -1657 -1655 -1651 -1653 -1659 -1661 -1662 -1658 -1661 -1661 -1660 -1667 -1672 -1673 -1668 -1670 -1684 -1685 -1684 -1690 -1692 -1690 -1686 -1674 -1673 -1676 -1676 -1674 -1676 -1686 -1693 -1709 -1711 -1698 -1690 -1686 -1687 -1687 -1684 -1666 -1675 -1669 -1673 -1675 -1672 -1660 -1663 -1659 -1661 -1667 -1678 -1677 -1670 -1668 -1666 -1668 -1665 -1660 -1662 -1661 -1661 -1656 -1655 -1653 -1653 -1653 -1655 -1656 -1651 -1656 -1658 -1661 -1662 -1659 -1652 -1650 -1658 -1659 -1663 -1667 -1664 -1662 -1667 -1669 -1698 -1706 -1718 -1711 -1700 -1685 -1680 -1661 -1655 -1658 -1657 -1652 -1646 -1636 -1631 -1627 -1625 -1624 -1612 -1614 -1601 -1607 -1602 -1599 -1592 -1585 -1587 -1594 -1597 -1602 -1607 -1609 -1613 -1614 -1617 -1621 -1621 -1624 -1623 -1621 -1619 -1616 -1620 -1623 -1627 -1626 -1623 -1623 -1621 -1617 -1614 -1600 -1587 -1580 -1573 -1568 -1551 -1546 -1540 -1529 -1523 -1520 -1518 -1510 -1501 -1497 -1493 -1489 -1482 -1482 -1485 -1493 -1495 -1501 -1503 -1506 -1502 -1500 -1497 -1494 -1485 -1464 -1453 -1440 -1435 -1415 -1389 -1383 -1371 -1361 -1344 -1320 -1312 -1304 -1295 -1272 -1261 -1245 -1222 -1214 -1198 -1189 -1171 -1151 -1141 -1122 -1113 -1083 -1051 -1034 -1017 -1000 -968
-1353 -1372 -1380 -1395 -1421 -1434 -1455 -1463 -1487 -1506 -1516 -1532 -1537 -1552 -1574 -1585 -1606 -1613 -1619 -1621 -1631 -1639 -1643 -1649 -1659 -1654 -1649 -1658 -1662 -1662 -1665 -1659 -1661 -1659 -1660 -1663 -1666 -1667 -1666 -1673 -1687 -1688 -1680 -1686 -1689 -1688 -1685 -1674 -1672 -1674 -1672 -1669 -1674 -1686 -1693 -1704 -1704 -1695 -1690 -1688 -1683 -1679 -1673 -1667 -1678 -1667 -1671 -1677 -1676 -1667 -1668 -1667 -1674 -1683 -1696 -1697 -1692 -1685 -1681 -1672 -1665 -1653 -1650 -1651 -1656 -1653 -1657 -1651 -1649 -1649 -1650 -1651 -1650 -1652 -1649 -1651 -1658 -1657 -1648 -1650 -1656 -1663 -1664 -1664 -1661 -1660 -1666 -1669 -1683 -1687 -1698 -1700 -1696 -1691 -1687 -1667 -1661 -1663 -1656 -1651 -1646 -1632 -1626 -1622 -1618 -1619 -1604 -1606 -1592 -1594 -1594 -1592 -1588 -1584 -1585 -1594 -1596 -1598 -1605 -1609 -1613 -1614 -1616 -1619 -1619 -1622 -1622 -1620 -1621 -1619 -1621 -1622 -1623 -1622 -1623 -1624 -1622 -1616 -1613 -1594 -1583 -1577 -1570 -1563 -1545 -1539 -1532 -1523 -1518 -1513 -1511 -1505 -1494 -1488 -1484 -1482 -1476 -1474 -1476 -1483 -1486 -1491 -1493 -1497 -1492 -1491 -1488 -1485 -1477 -1460 -1448 -1436 -1433 -1412 -1387 -1384 -1372 -1363 -1343 -1320 -1310 -1304 -1296 -1271 -1258 -1242 -1218 -1213 -1194 -1188 -1172 -1146 -1133 -1114 -1105 -1077 -1049 -1033 -1016 -1003 -969
-1345 -1363 -1371 -1384 -1410 -1427 -1453 -1460 -1478 -1499 -1512 -1526 -1530 -1544 -1569 -1583 -1602 -1606 -1613 -1617 -1627 -1634 -1637 -1646 -1652 -1650 -1660 -1665 -1663 -1660 -1656 -1660 -1660 -1659 -1660 -1665 -1667 -1666 -1668 -1673 -1681 -1678 -1671 -1678 -1682 -1686 -1685 -1676 -1672 -1672 -1668 -1666 -1671 -1682 -1686 -1690 -1690 -1686 -1684 -1685 -1682 -1678 -1671 -1668 -1675 -1668 -1669 -1672 -1674 -1667 -1675 -1678 -1692 -1701 -1712 -1715 -1715 -1704 -1697 -1679 -1667 -1647 -1640 -1639 -1647 -1654 -1657 -1651 -1647 -1648 -1648 -1646 -1651 -1646 -1639 -1642 -1652 -1651 -1646 -1653 -1654 -1662 -1662 -1661 -1657 -1658 -1668 -1670 -1673 -1675 -1687 -1692 -1691 -1687 -1683 -1664 -1658 -1659 -1655 -1652 -1646 -1631 -1624 -1616 -1613 -1609 -1596 -1597 -1585 -1584 -1588 -1588 -1586 -1585 -1585 -1591 -1593 -1596 -1602 -1606 -1609 -1611 -1614 -1616 -1616 -1621 -1620 -1622 -1624 -1621 -1622 -1622 -1622 -1622 -1625 -1624 -1620 -1615 -1610 -1588 -1579 -1575 -1562 -1555 -1543 -1538 -1526 -1519 -1514 -1505 -1502 -1497 -1487 -1480 -1475 -1474 -1470 -1466 -1467 -1475 -1478 -1482 -1483 -1489 -1484 -1483 -1479 -1477 -1468 -1453 -1444 -1430 -1425 -1408 -1386 -1382 -1370 -1362 -1343 -1322 -1315 -1304 -1294 -1268 -1255 -1240 -1218 -1212 -1189 -1182 -1168 -1143 -1128 -1109 -1099 -1072 -1044 -1033 -1015 -998 -970
-1337 -1359 -1366 -1379 -1404 -1419 -1443 -1453 -1469 -1487 -1502 -1515 -1523 -1542 -1570 -1583 -1605 -1612 -1615 -1619 -1627 -1631 -1635 -1645 -1643 -1645 -1662 -1665 -1658 -1654 -1650 -1660 -1664 -1670 -1669 -1668 -1669 -1669 -1667 -1670 -1671 -1670 -1666 -1672 -1676 -1684 -1685 -1679 -1673 -1670 -1668 -1667 -1668 -1671 -1673 -1677 -1676 -1674 -1673 -1674 -1675 -1674 -1670 -1667 -1668 -1669 -1667 -1664 -1666 -1669 -1687 -1696 -1715 -1722 -1728 -1732 -1733 -1718 -1711 -1688 -1674 -1651 -1640 -1638 -1644 -1649 -1653 -1653 -1652 -1651 -1650 -1647 -1653 -1645 -1639 -1643 -1650 -1649 -1649 -1657 -1654 -1657 -1656 -1655 -1654 -1655 -1659 -1659 -1662 -1664 -1671 -1677 -1677 -1673 -1669 -1658 -1655 -1656 -1653 -1649 -1640 -1631 -1623 -1615 -1609 -1601 -1589 -1591 -1580 -1577 -1581 -1583 -1581 -1579 -1580 -1583 -1584 -1590 -1595 -1597 -1603 -1606 -1609 -1613 -1614 -1619 -1618 -1620 -1621 -1622 -1625 -1624 -1623 -1624 -1625 -1620 -1616 -1610 -1605 -1585 -1575 -1571 -1558 -1551 -1541 -1535 -1520 -1516 -1510 -1495 -1490 -1484 -1478 -1474 -1468 -1465 -1460 -1458 -1459 -1466 -1470 -1475 -1477 -1477 -1479 -1477 -1474 -1471 -1461 -1448 -1440 -1426 -1422 -1410 -1385 -1379 -1368 -1358 -1342 -1324 -1314 -1298 -1289 -1266 -1254 -1239 -1217 -1209 -1188 -1176 -1162 -1145 -1131 -1106 -1094 -1068 -1039 -1029 -1011 -989 -965
-1326 -1351 -1356 -1374 -1398 -1408 -1431 -1442 -1460 -1476 -1489 -1507 -1519 -1544 -1572 -1585 -1611 -1615 -1618 -1624 -1635 -1639 -1640 -1638 -1638 -1646 -1668 -1662 -1654 -1652 -1648 -1659 -1664 -1675 -1673 -1668 -1668 -1667 -1664 -1665 -1670 -1671 -1668 -1670 -1672 -1675 -1677 -1674 -1670 -1669 -1668 -1669 -1668 -1661 -1662 -1668 -1671 -1672 -1669 -1664 -1666 -1668 -1671 -1666 -1668 -1671 -1662 -1660 -1666 -1674 -1704 -1716 -1737 -1742 -1745 -1746 -1742 -1728 -1719 -1700 -1687 -1660 -1646 -1644 -1645 -1642 -1645 -1650 -1652 -1654 -1654 -1654 -1648 -1650 -1649 -1652 -1656 -1653 -1652 -1655 -1654 -1657 -1656 -1652 -1651 -1652 -1644 -1646 -1652 -1652 -1655 -1658 -1658 -1654 -1653 -1650 -1652 -1653 -1648 -1644 -1636 -1626 -1620 -1612 -1608 -1599 -1584 -1587 -1575 -1574 -1575 -1576 -1572 -1570 -1572 -1575 -1576 -1586 -1591 -1593 -1598 -1600 -1602 -1610 -1612 -1615 -1614 -1617 -1619 -1623 -1627 -1626 -1625 -1625 -1621 -1616 -1612 -1605 -1600 -1583 -1569 -1564 -1553 -1548 -1539 -1531 -1516 -1513 -1507 -1487 -1480 -1471 -1468 -1466 -1461 -1458 -1453 -1454 -1455 -1460 -1464 -1470 -1472 -1467 -1473 -1471 -1468 -1464 -1454 -1442 -1434 -1423 -1420 -1410 -1386 -1380 -1366 -1356 -1337 -1324 -1311 -1292 -1284 -1263 -1251 -1228 -1213 -1207 -1184 -1173 -1156 -1142 -1132 -1104 -1090 -1067 -1037 -1026 -1009 -984 -962
-1321 -1339 -1344 -1365 -1388 -1399 -1424 -1435 -1452 -1467 -1478 -1502 -1516 -1544 -1569 -1583 -1610 -1616 -1626 -1635 -1651 -1654 -1650 -1637 -1638 -1648 -1663 -1662 -1653 -1652 -1654 -1657 -1659 -1666 -1667 -1665 -1665 -1663 -1661 -1664 -1671 -1672 -1668 -1666 -1667 -1668 -1668 -1670 -1673 -1673 -1669 -1667 -1664 -1657 -1657 -1666 -1672 -1676 -1672 -1666 -1668 -1668 -1669 -1670 -1665 -1666 -1657 -1659 -1667 -1677 -1721 -1731 -1747 -1752 -1755 -1755 -1748 -1732 -1726 -1710 -1696 -1662 -1644 -1642 -1639 -1636 -1644 -1649 -1648 -1655 -1659 -1659 -1647 -1652 -1650 -1652 -1657 -1655 -1650 -1648 -1653 -1656 -1655 -1651 -1649 -1650 -1640 -1642 -1646 -1644 -1645 -1647 -1644 -1641 -1641 -1643 -1646 -1645 -1643 -1641 -1633 -1623 -1619 -1605 -1605 -1595 -1580 -1583 -1571 -1573 -1572 -1572 -1569 -1566 -1570 -1577 -1578 -1583 -1593 -1598 -1601 -1601 -1602 -1610 -1613 -1614 -1614 -1619 -1621 -1624 -1626 -1626 -1625 -1624 -1619 -1612 -1608 -1600 -1594 -1582 -1566 -1559 -1548 -1546 -1538 -1531 -1518 -1508 -1500 -1481 -1473 -1461 -1457 -1456 -1452 -1451 -1449 -1450 -1449 -1454 -1459 -1467 -1468 -1464 -1468 -1467 -1463 -1457 -1447 -1434 -1427 -1420 -1417 -1401 -1386 -1378 -1360 -1348 -1330 -1314 -1303 -1286 -1278 -1258 -1246 -1223 -1207 -1200 -1176 -1167 -1147 -1133 -1123 -1100 -1087 -1063 -1035 -1024 -1006 -978 -959
-1316 -1332 -1338 -1359 -1382 -1398 -1422 -1431 -1444 -1459 -1472 -1500 -1516 -1544 -1563 -1576 -1606 -1617 -1638 -1651 -1670 -1666 -1658 -1638 -1641 -1647 -1663 -1665 -1655 -1646 -1650 -1653 -1654 -1657 -1658 -1660 -1661 -1660 -1660 -1662 -1667 -1667 -1663 -1660 -1661 -1663 -1664 -1668 -1676 -1679 -1671 -1664 -1658 -1656 -1656 -1662 -1665 -1668 -1667 -1671 -1673 -1670 -1666 -1666 -1663 -1662 -1657 -1660 -1669 -1689 -1722 -1732 -1750 -1753 -1754 -1753 -1750 -1736 -1729 -1715 -1699 -1660 -1640 -1637 -1635 -1633 -1651 -1649 -1647 -1656 -1661 -1660 -1647 -1651 -1645 -1646 -1650 -1651 -1646 -1642 -1650 -1650 -1651 -1649 -1647 -1646 -1641 -1646 -1643 -1640 -1642 -1644 -1639 -1636 -1638 -1643 -1641 -1637 -1635 -1634 -1628 -1614 -1611 -1599 -1600 -1592 -1580 -1579 -1566 -1569 -1569 -1570 -1568 -1567 -1572 -1585 -1586 -1584 -1596 -1602 -1607 -1608 -1609 -1613 -1616 -1621 -1622 -1624 -1625 -1624 -1626 -1626 -1625 -1623 -1617 -1609 -1603 -1593 -1586 -1578 -1567 -1559 -1547 -1545 -1536 -1529 -1515 -1498 -1489 -1473 -1464 -1449 -1445 -1443 -1440 -1441 -1444 -1444 -1443 -1448 -1453 -1459 -1460 -1458 -1464 -1463 -1458 -1452 -1441 -1431 -1425 -1419 -1416 -1397 -1377 -1370 -1351 -1341 -1322 -1307 -1293 -1274 -1265 -1247 -1236 -1210 -1193 -1189 -1169 -1159 -1140 -1120 -1111 -1095 -1084 -1056 -1034 -1020 -1004 -975 -954
-1310 -1329 -1336 -1355 -1383 -1399 -1417 -1423 -1437 -1455 -1467 -1497 -1516 -1544 -1562 -1578 -1608 -1619 -1642 -1655 -1682 -1674 -1662 -1643 -1645 -1649 -1662 -1665 -1656 -1651 -1646 -1650 -1653 -1657 -1658 -1657 -1657 -1657 -1657 -1659 -1661 -1661 -1660 -1658 -1659 -1663 -1663 -1663 -1671 -1675 -1673 -1669 -1661 -1657 -1657 -1661 -1661 -1660 -1662 -1672 -1676 -1673 -1665 -1664 -1664 -1661 -1660 -1665 -1673 -1687 -1714 -1726 -1743 -1746 -1746 -1748 -1749 -1734 -1726 -1713 -1701 -1666 -1639 -1634 -1635 -1632 -1653 -1646 -1644 -1654 -1660 -1659 -1646 -1646 -1639 -1641 -1648 -1650 -1644 -1642 -1648 -1645 -1647 -1649 -1647 -1644 -1639 -1641 -1642 -1641 -1641 -1640 -1637 -1633 -1637 -1641 -1636 -1631 -1627 -1625 -1619 -1611 -1605 -1594 -1596 -1591 -1579 -1578 -1564 -1567 -1565 -1563 -1564 -1569 -1573 -1582 -1583 -1583 -1596 -1603 -1611 -1613 -1615 -1615 -1616 -1628 -1629 -1626 -1626 -1625 -1624 -1625 -1625 -1622 -1614 -1603 -1596 -1586 -1580 -1572 -1565 -1557 -1545 -1540 -1526 -1517 -1504 -1485 -1477 -1461 -1452 -1438 -1433 -1430 -1428 -1431 -1437 -1438 -1438 -1440 -1442 -1446 -1449 -1452 -1461 -1459 -1454 -1449 -1439 -1432 -1426 -1416 -1411 -1393 -1368 -1359 -1344 -1336 -1316 -1304 -1288 -1264 -1252 -1237 -1226 -1202 -1185 -1180 -1163 -1151 -1132 -1113 -1103 -1089 -1079 -1053 -1031 -1018 -1001 -974 -953
-1304 -1330 -1338 -1352 -1378 -1393 -1409 -1417 -1437 -1454 -1464 -1493 -1512 -1540 -1563 -1579 -1610 -1620 -1641 -1654 -1683 -1678 -1666 -1647 -1649 -1651 -1660 -1663 -1659 -1654 -1651 -1656 -1657 -1658 -1658 -1656 -1656 -1657 -1657 -1657 -1659 -1659 -1660 -1658 -1658 -1661 -1661 -1660 -1664 -1668 -1673 -1672 -1665 -1660 -1661 -1662 -1661 -1660 -1664 -1670 -1673 -1671 -1664 -1662 -1660 -1660 -1657 -1661 -1667 -1672 -1701 -1716 -1733 -1735 -1736 -1739 -1741 -1728 -1721 -1711 -1701 -1670 -1645 -1638 -1635 -1632 -1646 -1640 -1640 -1649 -1653 -1655 -1649 -1643 -1637 -1642 -1650 -1650 -1645 -1644 -1646 -1640 -1642 -1647 -1647 -1645 -1639 -1639 -1640 -1641 -1638 -1636 -1634 -1630 -1631 -1632 -1626 -1623 -1620 -1618 -1612 -1602 -1600 -1600 -1588 -1585 -1575 -1576 -1564 -1567 -1564 -1559 -1560 -1571 -1574 -1576 -1578 -1585 -1600 -1608 -1615 -1617 -1618 -1617 -1619 -1635 -1635 -1629 -1628 -1625 -1620 -1621 -1623 -1620 -1609 -1597 -1590 -1580 -1575 -1564 -1555 -1547 -1533 -1528 -1512 -1504 -1492 -1476 -1467 -1450 -1441 -1429 -1422 -1420 -1418 -1422 -1427 -1427 -1428 -1429 -1429 -1435 -1440 -1446 -1455 -1455 -1449 -1444 -1436 -1427 -1419 -1406 -1400 -1384 -1360 -1353 -1337 -1331 -1312 -1293 -1280 -1259 -1251 -1232 -1221 -1197 -1178 -1166 -1158 -1146 -1125 -1109 -1099 -1078 -1069 -1045 -1023 -1014 -998 -968 -953
-1299 -1326 -1333 -1346 -1370 -1384 -1404 -1415 -1437 -1453 -1461 -1488 -1505 -1538 -1565 -1579 -1610 -1622 -1647 -1658 -1683 -1677 -1666 -1650 -1650 -1652 -1665 -1663 -1659 -1657 -1659 -1660 -1657 -1657 -1657 -1657 -1658 -1661 -1659 -1659 -1658 -1657 -1658 -1657 -1656 -1658 -1656 -1657 -1662 -1665 -1667 -1666 -1662 -1662 -1662 -1660 -1657 -1658 -1663 -1669 -1671 -1671 -1664 -1662 -1660 -1660 -1652 -1652 -1655 -1656 -1683 -1699 -1723 -1725 -1725 -1726 -1727 -1720 -1716 -1703 -1692 -1664 -1645 -1640 -1636 -1634 -1637 -1636 -1636 -1641 -1644 -1645 -1646 -1643 -1643 -1646 -1649 -1648 -1644 -1646 -1644 -1639 -1640 -1642 -1642 -1642 -1637 -1636 -1634 -1635 -1634 -1632 -1630 -1626 -1626 -1622 -1618 -1617 -1614 -1612 -1606 -1595 -1594 -1581 -1583 -1576 -1567 -1573 -1567 -1567 -1568 -1564 -1562 -1575 -1579 -1579 -1580 -1594 -1610 -1616 -1620 -1619 -1622 -1621 -1619 -1633 -1635 -1633 -1632 -1625 -1618 -1618 -1619 -1615 -1601 -1589 -1584 -1576 -1568 -1556 -1545 -1537 -1522 -1517 -1506 -1499 -1485 -1467 -1459 -1446 -1439 -1424 -1415 -1413 -1412 -1414 -1417 -1414 -1415 -1418 -1419 -1428 -1433 -1441 -1449 -1451 -1445 -1442 -1437 -1424 -1415 -1400 -1393 -1381 -1355 -1348 -1330 -1321 -1307 -1285 -1275 -1257 -1249 -1228 -1215 -1187 -1167 -1156 -1147 -1135 -1118 -1104 -1094 -1071 -1060 -1044 -1017 -1013 -994 -969 -953
-1297 -1316 -1323 -1340 -1363 -1376 -1398 -1410 -1436 -1452 -1459 -1486 -1502 -1538 -1566 -1579 -1608 -1623 -1651 -1663 -1679 -1675 -1664 -1643 -1648 -1652 -1659 -1662 -1659 -1657 -1660 -1655 -1652 -1654 -1655 -1661 -1663 -1663 -1660 -1660 -1659 -1657 -1658 -1661 -1663 -1662 -1658 -1656 -1663 -1665 -1663 -1661 -1660 -1661 -1660 -1659 -1656 -1657 -1662 -1671 -1669 -1666 -1660 -1659 -1656 -1661 -1652 -1649 -1649 -1645 -1668 -1682 -1707 -1713 -1716 -1717 -1716 -1710 -1704 -1684 -1674 -1654 -1641 -1638 -1634 -1635 -1634 -1637 -1637 -1637 -1637 -1637 -1640 -1641 -1647 -1650 -1649 -1646 -1642 -1649 -1643 -1639 -1638 -1636 -1638 -1641 -1636 -1632 -1628 -1629 -1629 -1626 -1623 -1620 -1620 -1617 -1614 -1612 -1609 -1607 -1604 -1590 -1586 -1577 -1575 -1567 -1565 -1570 -1568 -1569 -1574 -1572 -1568 -1578 -1583 -1584 -1585 -1602 -1619 -1622 -1624 -1623 -1626 -1623 -1620 -1632 -1635 -1634 -1632 -1625 -1618 -1616 -1612 -1606 -1593 -1584 -1580 -1568 -1564 -1553 -1545 -1539 -1521 -1513 -1505 -1499 -1481 -1458 -1450 -1438 -1434 -1421 -1411 -1410 -1406 -1406 -1409 -1406 -1406 -1410 -1412 -1419 -1424 -1439 -1448 -1451 -1443 -1441 -1438 -1423 -1415 -1402 -1395 -1381 -1352 -1347 -1325 -1313 -1303 -1280 -1272 -1256 -1247 -1219 -1205 -1182 -1160 -1151 -1136 -1126 -1109 -1098 -1091 -1070 -1058 -1045 -1017 -1011 -996 -973 -948
-1294 -1309 -1317 -1340 -1359 -1371 -1394 -1407 -1435 -1453 -1464 -1486 -1503 -1537 -1562 -1573 -1602 -1618 -1646 -1654 -1663 -1659 -1653 -1636 -1642 -1649 -1655 -1661 -1658 -1654 -1654 -1649 -1647 -1651 -1655 -1670 -1675 -1670 -1659 -1657 -1656 -1655 -1659 -1655 -1664 -1661 -1658 -1657 -1661 -1663 -1660 -1659 -1660 -1660 -1663 -1667 -1666 -1664 -1666 -1669 -1665 -1661 -1655 -1655 -1657 -1656 -1650 -1649 -1648 -1640 -1660 -1667 -1684 -1692 -1700 -1701 -1699 -1691 -1683 -1662 -1654 -1645 -1637 -1634 -1631 -1638 -1637 -1647 -1648 -1642 -1638 -1631 -1637 -1643 -1649 -1650 -1651 -1648 -1645 -1651 -1651 -1639 -1636 -1634 -1635 -1638 -1634 -1629 -1627 -1627 -1625 -1623 -1621 -1619 -1620 -1617 -1610 -1607 -1604 -1603 -1600 -1586 -1581 -1572 -1572 -1563 -1562 -1571 -1563 -1569 -1574 -1573 -1570 -1577 -1582 -1585 -1589 -1604 -1616 -1620 -1625 -1627 -1630 -1627 -1623 -1633 -1636 -1634 -1631 -1625 -1619 -1615 -1606 -1598 -1585 -1579 -1576 -1565 -1559 -1548 -1543 -1539 -1522 -1513 -1499 -1493 -1477 -1455 -1445 -1430 -1425 -1416 -1409 -1408 -1401 -1400 -1401 -1399 -1400 -1404 -1407 -1412 -1416 -1432 -1445 -1450 -1441 -1438 -1436 -1419 -1410 -1397 -1390 -1375 -1351 -1342 -1324 -1313 -1300 -1273 -1266 -1251 -1240 -1211 -1197 -1179 -1154 -1146 -1136 -1126 -1108 -1093 -1085 -1068 -1056 -1045 -1019 -1013 -995 -977 -947
-1292 -1306 -1315 -1340 -1359 -1370 -1393 -1404 -1430 -1451 -1467 -1485 -1501 -1531 -1553 -1564 -1594 -1608 -1631 -1639 -1641 -1638 -1638 -1630 -1638 -1647 -1653 -1656 -1652 -1648 -1647 -1647 -1647 -1652 -1660 -1683 -1687 -1677 -1661 -1654 -1652 -1654 -1656 -1658 -1657 -1656 -1657 -1657 -1657 -1658 -1656 -1656 -1658 -1660 -1665 -1676 -1675 -1668 -1667 -1665 -1666 -1666 -1660 -1657 -1651 -1652 -1651 -1649 -1647 -1636 -1653 -1655 -1662 -1667 -1671 -1670 -1670 -1666 -1660 -1645 -1639 -1636 -1633 -1632 -1628 -1634 -1646 -1668 -1670 -1657 -1646 -1632 -1635 -1649 -1649 -1648 -1650 -1650 -1651 -1652 -1655 -1642 -1639 -1635 -1630 -1630 -1632 -1626 -1627 -1627 -1625 -1622 -1621 -1621 -1621 -1618 -1610 -1606 -1601 -1598 -1594 -1580 -1576 -1570 -1569 -1564 -1561 -1570 -1557 -1565 -1569 -1569 -1570 -1580 -1584 -1592 -1597 -1606 -1614 -1619 -1626 -1629 -1636 -1634 -1628 -1627 -1631 -1632 -1629 -1622 -1621 -1619 -1607 -1598 -1584 -1576 -1573 -1561 -1557 -1544 -1535 -1530 -1518 -1510 -1493 -1486 -1474 -1454 -1444 -1426 -1419 -1411 -1408 -1406 -1398 -1396 -1392 -1391 -1394 -1401 -1403 -1408 -1412 -1426 -1440 -1446 -1441 -1438 -1428 -1409 -1399 -1385 -1379 -1367 -1347 -1340 -1325 -1317 -1296 -1270 -1262 -1242 -1231 -1207 -1195 -1176 -1152 -1144 -1131 -1122 -1110 -1094 -1083 -1066 -1057 -1045 -1022 -1010 -996 -979 -954
-1288 -1310 -1318 -1339 -1360 -1372 -1395 -1406 -1427 -1446 -1464 -1482 -1500 -1525 -1544 -1557 -1584 -1597 -1618 -1624 -1627 -1628 -1632 -1630 -1640 -1646 -1648 -1650 -1647 -1643 -1644 -1651 -1653 -1655 -1662 -1683 -1685 -1674 -1659 -1652 -1650 -1652 -1654 -1656 -1656 -1658 -1656 -1654 -1654 -1654 -1655 -1657 -1660 -1658 -1662 -1670 -1668 -1661 -1660 -1663 -1671 -1676 -1675 -1671 -1656 -1655 -1652 -1649 -1647 -1634 -1642 -1643 -1646 -1648 -1643 -1640 -1644 -1648 -1647 -1640 -1634 -1632 -1631 -1631 -1627 -1630 -1652 -1682 -1685 -1667 -1654 -1634 -1633 -1647 -1645 -1641 -1642 -1645 -1648 -1649 -1647 -1646 -1643 -1635 -1628 -1627 -1631 -1627 -1626 -1625 -1624 -1620 -1618 -1619 -1618 -1614 -1607 -1603 -1596 -1593 -1589 -1578 -1576 -1568 -1566 -1562 -1557 -1566 -1557 -1562 -1565 -1565 -1569 -1581 -1587 -1594 -1599 -1608 -1617 -1622 -1629 -1634 -1642 -1641 -1634 -1629 -1631 -1631 -1628 -1622 -1626 -1627 -1615 -1607 -1592 -1578 -1571 -1559 -1554 -1542 -1528 -1522 -1512 -1504 -1488 -1481 -1468 -1448 -1438 -1421 -1413 -1407 -1405 -1400 -1389 -1387 -1385 -1388 -1391 -1396 -1399 -1406 -1410 -1424 -1434 -1439 -1436 -1431 -1417 -1400 -1392 -1382 -1376 -1364 -1344 -1337 -1324 -1312 -1293 -1269 -1259 -1236 -1223 -1204 -1193 -1166 -1151 -1141 -1120 -1111 -1105 -1093 -1082 -1063 -1056 -1043 -1021 -1011 -995 -980 -958
-1285 -1314 -1322 -1335 -1360 -1373 -1397 -1408 -1430 -1448 -1466 -1482 -1498 -1521 -1540 -1553 -1581 -1594 -1612 -1609 -1619 -1622 -1628 -1631 -1640 -1645 -1645 -1646 -1644 -1643 -1646 -1651 -1652 -1649 -1652 -1668 -1669 -1663 -1655 -1652 -1651 -1652 -1656 -1662 -1664 -1660 -1656 -1651 -1652 -1653 -1659 -1663 -1661 -1653 -1653 -1655 -1653 -1651 -1653 -1663 -1676 -1683 -1692 -1688 -1678 -1662 -1652 -1646 -1644 -1633 -1633 -1633 -1636 -1635 -1628 -1626 -1630 -1638 -1641 -1638 -1633 -1629 -1630 -1630 -1625 -1627 -1648 -1676 -1680 -1662 -1650 -1637 -1634 -1640 -1640 -1636 -1635 -1637 -1640 -1640 -1640 -1642 -1641 -1632 -1626 -1626 -1629 -1633 -1626 -1623 -1623 -1619 -1616 -1618 -1618 -1613 -1605 -1600 -1593 -1591 -1589 -1578 -1575 -1567 -1564 -1559 -1567 -1568 -1565 -1563 -1563 -1564 -1568 -1580 -1586 -1592 -1595 -1606 -1620 -1626 -1632 -1636 -1643 -1643 -1639 -1636 -1637 -1636 -1634 -1629 -1634 -1637 -1631 -1624 -1604 -1581 -1570 -1555 -1549 -1538 -1522 -1517 -1508 -1501 -1486 -1479 -1462 -1441 -1431 -1417 -1411 -1406 -1398 -1390 -1377 -1375 -1381 -1386 -1389 -1390 -1393 -1402 -1406 -1416 -1424 -1427 -1425 -1420 -1411 -1401 -1395 -1384 -1377 -1359 -1340 -1335 -1318 -1306 -1290 -1269 -1259 -1233 -1220 -1202 -1191 -1169 -1147 -1140 -1118 -1108 -1100 -1091 -1083 -1062 -1053 -1042 -1020 -1011 -997 -981 -959
-1288 -1309 -1317 -1333 -1358 -1369 -1392 -1407 -1435 -1453 -1464 -1482 -1494 -1516 -1541 -1557 -1583 -1592 -1608 -1614 -1617 -1621 -1624 -1630 -1638 -1644 -1641 -1640 -1644 -1644 -1647 -1650 -1649 -1642 -1643 -1653 -1655 -1656 -1654 -1654 -1655 -1655 -1659 -1667 -1667 -1659 -1656 -1656 -1654 -1654 -1663 -1667 -1661 -1652 -1650 -1650 -1649 -1647 -1649 -1662 -1675 -1681 -1693 -1692 -1688 -1660 -1649 -1640 -1638 -1635 -1631 -1630 -1631 -1630 -1623 -1620 -1622 -1631 -1634 -1633 -1631 -1630 -1631 -1630 -1626 -1624 -1638 -1661 -1663 -1650 -1643 -1636 -1630 -1638 -1638 -1637 -1636 -1637 -1635 -1635 -1638 -1640 -1637 -1628 -1623 -1623 -1628 -1632 -1625 -1622 -1624 -1623 -1620 -1622 -1624 -1616 -1605 -1600 -1593 -1592 -1590 -1582 -1574 -1566 -1564 -1561 -1580 -1577 -1575 -1565 -1568 -1570 -1572 -1582 -1585 -1591 -1595 -1607 -1623 -1628 -1633 -1636 -1641 -1643 -1642 -1644 -1644 -1644 -1641 -1633 -1641 -1649 -1647 -1636 -1607 -1582 -1570 -1547 -1544 -1535 -1522 -1516 -1504 -1497 -1480 -1474 -1456 -1431 -1422 -1410 -1407 -1400 -1390 -1383 -1371 -1370 -1371 -1373 -1377 -1384 -1388 -1399 -1402 -1408 -1413 -1413 -1414 -1413 -1408 -1404 -1400 -1383 -1371 -1351 -1336 -1330 -1313 -1308 -1291 -1270 -1259 -1235 -1225 -1202 -1191 -1170 -1148 -1138 -1119 -1111 -1103 -1091 -1085 -1067 -1057 -1044 -1024 -1014 -999 -981 -961
-1286 -1303 -1314 -1335 -1356 -1365 -1391 -1406 -1434 -1451 -1465 -1483 -1494 -1513 -1538 -1555 -1582 -1590 -1608 -1615 -1620 -1621 -1623 -1628 -1638 -1644 -1636 -1635 -1642 -1644 -1647 -1652 -1651 -1645 -1644 -1648 -1649 -1650 -1654 -1654 -1655 -1656 -1659 -1661 -1662 -1657 -1657 -1661 -1659 -1659 -1666 -1668 -1660 -1655 -1654 -1656 -1655 -1647 -1646 -1660 -1674 -1679 -1684 -1681 -1683 -1652 -1646 -1640 -1638 -1637 -1633 -1630 -1627 -1627 -1626 -1622 -1621 -1631 -1633 -1632 -1631 -1631 -1630 -1630 -1630 -1625 -1631 -1643 -1646 -1635 -1632 -1631 -1632 -1638 -1637 -1638 -1639 -1637 -1632 -1634 -1634 -1654 -1631 -1624 -1623 -1623 -1624 -1628 -1623 -1622 -1625 -1625 -1624 -1624 -1625 -1617 -1607 -1602 -1597 -1597 -1594 -1584 -1580 -1569 -1567 -1567 -1581 -1580 -1572 -1565 -1571 -1573 -1577 -1583 -1586 -1596 -1601 -1611 -1624 -1630 -1634 -1636 -1643 -1646 -1646 -1650 -1650 -1648 -1642 -1630 -1643 -1654 -1653 -1639 -1604 -1579 -1567 -1543 -1539 -1529 -1522 -1514 -1497 -1486 -1470 -1464 -1447 -1422 -1412 -1405 -1403 -1393 -1381 -1377 -1368 -1365 -1363 -1362 -1367 -1378 -1382 -1392 -1395 -1402 -1404 -1404 -1408 -1409 -1408 -1407 -1402 -1378 -1363 -1343 -1332 -1328 -1309 -1303 -1290 -1269 -1259 -1238 -1227 -1204 -1191 -1172 -1144 -1137 -1119 -1114 -1107 -1092 -1084 -1073 -1063 -1047 -1029 -1016 -1001 -983 -959
-1284 -1301 -1312 -1337 -1359 -1368 -1391 -1404 -1427 -1445 -1463 -1483 -1493 -1512 -1532 -1547 -1577 -1587 -1609 -1615 -1616 -1617 -1619 -1625 -1634 -1639 -1632 -1632 -1640 -1642 -1648 -1650 -1651 -1649 -1648 -1650 -1648 -1646 -1646 -1655 -1656 -1656 -1655 -1651 -1655 -1656 -1657 -1662 -1663 -1665 -1669 -1668 -1661 -1657 -1656 -1656 -1653 -1647 -1646 -1654 -1672 -1675 -1670 -1665 -1658 -1642 -1643 -1643 -1642 -1634 -1631 -1626 -1620 -1622 -1626 -1626 -1626 -1636 -1637 -1633 -1631 -1629 -1630 -1631 -1632 -1624 -1626 -1631 -1634 -1630 -1627 -1632 -1633 -1635 -1633 -1637 -1640 -1634 -1630 -1633 -1632 -1633 -1627 -1621 -1624 -1626 -1631 -1629 -1624 -1624 -1626 -1627 -1627 -1625 -1624 -1619 -1610 -1607 -1602 -1601 -1597 -1588 -1586 -1574 -1569 -1572 -1566 -1573 -1560 -1564 -1571 -1574 -1579 -1585 -1591 -1604 -1608 -1616 -1625 -1630 -1635 -1637 -1648 -1652 -1652 -1653 -1652 -1649 -1641 -1626 -1634 -1642 -1641 -1630 -1600 -1572 -1559 -1538 -1533 -1518 -1514 -1506 -1485 -1474 -1459 -1454 -1439 -1417 -1408 -1402 -1399 -1383 -1370 -1367 -1359 -1356 -1358 -1361 -1365 -1372 -1374 -1380 -1385 -1394 -1396 -1398 -1403 -1404 -1403 -1399 -1393 -1371 -1359 -1355 -1329 -1323 -1309 -1302 -1287 -1265 -1254 -1231 -1223 -1203 -1191 -1171 -1140 -1134 -1121 -1113 -1106 -1094 -1087 -1079 -1069 -1044 -1024 -1016 -997 -981 -953
-1282 -1302 -1313 -1337 -1359 -1370 -1390 -1400 -1420 -1440 -1464 -1481 -1493 -1514 -1534 -1548 -1577 -1587 -1602 -1607 -1612 -1614 -1615 -1623 -1627 -1631 -1631 -1632 -1640 -1644 -1646 -1644 -1645 -1648 -1647 -1648 -1646 -1643 -1644 -1653 -1656 -1655 -1653 -1648 -1649 -1651 -1654 -1661 -1667 -1680 -1668 -1667 -1661 -1656 -1654 -1650 -1649 -1650 -1650 -1649 -1660 -1661 -1654 -1649 -1643 -1638 -1640 -1639 -1637 -1631 -1623 -1620 -1619 -1621 -1625 -1627 -1630 -1638 -1639 -1636 -1635 -1629 -1631 -1632 -1631 -1624 -1623 -1628 -1632 -1632 -1630 -1633 -1634 -1633 -1631 -1637 -1639 -1634 -1628 -1631 -1630 -1632 -1629 -1620 -1627 -1634 -1640 -1636 -1630 -1630 -1628 -1627 -1627 -1622 -1620 -1620 -1618 -1616 -1608 -1605 -1599 -1589 -1586 -1576 -1572 -1573 -1562 -1563 -1559 -1566 -1575 -1580 -1584 -1591 -1596 -1608 -1612 -1622 -1628 -1631 -1636 -1640 -1649 -1654 -1656 -1656 -1653 -1647 -1638 -1623 -1619 -1619 -1615 -1608 -1587 -1560 -1547 -1530 -1526 -1509 -1503 -1496 -1476 -1464 -1448 -1444 -1429 -1412 -1405 -1395 -1390 -1374 -1359 -1356 -1347 -1344 -1348 -1357 -1361 -1365 -1365 -1368 -1372 -1383 -1383 -1386 -1392 -1392 -1389 -1380 -1375 -1363 -1358 -1352 -1326 -1320 -1313 -1308 -1286 -1261 -1250 -1225 -1214 -1197 -1186 -1169 -1139 -1131 -1123 -1113 -1099 -1091 -1086 -1079 -1070 -1043 -1016 -1012 -995 -977 -946
-1283 -1302 -1314 -1335 -1354 -1365 -1388 -1398 -1419 -1440 -1463 -1483 -1496 -1515 -1539 -1553 -1575 -1582 -1594 -1599 -1608 -1614 -1615 -1624 -1624 -1630 -1629 -1630 -1639 -1643 -1642 -1638 -1640 -1644 -1644 -1642 -1640 -1641 -1648 -1647 -1652 -1652 -1652 -1646 -1647 -1644 -1648 -1658 -1665 -1665 -1661 -1658 -1653 -1649 -1649 -1647 -1647 -1651 -1651 -1645 -1646 -1647 -1647 -1646 -1638 -1636 -1638 -1633 -1631 -1635 -1621 -1620 -1624 -1626 -1626 -1626 -1629 -1635 -1637 -1637 -1636 -1630 -1629 -1630 -1629 -1625 -1622 -1628 -1632 -1634 -1633 -1634 -1637 -1634 -1633 -1636 -1636 -1633 -1630 -1632 -1634 -1638 -1636 -1627 -1635 -1641 -1642 -1644 -1641 -1640 -1633 -1626 -1625 -1622 -1621 -1621 -1626 -1626 -1622 -1617 -1604 -1589 -1585 -1580 -1582 -1574 -1567 -1563 -1564 -1568 -1577 -1582 -1591 -1601 -1606 -1614 -1619 -1630 -1633 -1632 -1640 -1646 -1654 -1658 -1659 -1659 -1656 -1645 -1636 -1622 -1609 -1602 -1592 -1588 -1569 -1549 -1537 -1521 -1517 -1505 -1495 -1488 -1469 -1458 -1439 -1434 -1419 -1404 -1398 -1386 -1382 -1371 -1357 -1351 -1341 -1339 -1337 -1342 -1347 -1355 -1357 -1360 -1362 -1371 -1372 -1375 -1382 -1384 -1380 -1368 -1365 -1360 -1354 -1345 -1324 -1319 -1313 -1307 -1286 -1256 -1246 -1219 -1206 -1186 -1178 -1165 -1138 -1132 -1122 -1113 -1096 -1085 -1079 -1066 -1058 -1040 -1014 -1011 -995 -975 -940
-1282 -1298 -1309 -1331 -1352 -1364 -1387 -1400 -1421 -1444 -1462 -1476 -1492 -1511 -1539 -1552 -1570 -1577 -1588 -1593 -1606 -1618 -1620 -1621 -1624 -1630 -1632 -1632 -1635 -1636 -1635 -1635 -1637 -1640 -1640 -1640 -1638 -1641 -1650 -1642 -1647 -1649 -1653 -1646 -1646 -1641 -1642 -1650 -1657 -1658 -1654 -1650 -1645 -1643 -1642 -1642 -1643 -1645 -1644 -1639 -1641 -1642 -1645 -1644 -1635 -1637 -1634 -1627 -1627 -1632 -1622 -1622 -1630 -1632 -1630 -1628 -1628 -1631 -1632 -1635 -1634 -1630 -1628 -1628 -1630 -1623 -1627 -1628 -1631 -1631 -1632 -1633 -1638 -1637 -1634 -1633 -1632 -1631 -1631 -1636 -1639 -1660 -1645 -1638 -1641 -1642 -1646 -1649 -1650 -1648 -1640 -1632 -1628 -1624 -1623 -1621 -1626 -1629 -1630 -1627 -1609 -1593 -1586 -1577 -1577 -1577 -1569 -1574 -1571 -1579 -1582 -1585 -1597 -1613 -1618 -1622 -1624 -1632 -1637 -1639 -1649 -1653 -1657 -1658 -1658 -1659 -1657 -1644 -1632 -1617 -1607 -1598 -1583 -1578 -1563 -1545 -1535 -1512 -1510 -1497 -1486 -1479 -1461 -1451 -1433 -1425 -1412 -1398 -1391 -1378 -1374 -1366 -1353 -1346 -1338 -1335 -1329 -1328 -1332 -1345 -1349 -1351 -1352 -1363 -1366 -1369 -1375 -1378 -1376 -1365 -1362 -1357 -1349 -1343 -1323 -1318 -1304 -1295 -1283 -1251 -1241 -1213 -1201 -1182 -1174 -1159 -1137 -1131 -1119 -1111 -1096 -1082 -1073 -1056 -1048 -1037 -1016 -1005 -988 -969 -935
-1278 -1298 -1307 -1329 -1354 -1366 -1390 -1403 -1423 -1445 -1463 -1479 -1488 -1512 -1540 -1549 -1568 -1575 -1583 -1589 -1607 -1619 -1621 -1623 -1624 -1633 -1639 -1638 -1633 -1631 -1632 -1635 -1637 -1637 -1637 -1638 -1640 -1640 -1644 -1641 -1646 -1649 -1654 -1648 -1648 -1640 -1639 -1641 -1647 -1652 -1656 -1651 -1643 -1641 -1641 -1639 -1639 -1638 -1638 -1636 -1641 -1642 -1639 -1638 -1632 -1633 -1629 -1625 -1624 -1625 -1621 -1623 -1632 -1636 -1634 -1631 -1629 -1628 -1628 -1633 -1632 -1629 -1628 -1630 -1639 -1623 -1633 -1629 -1630 -1629 -1628 -1631 -1639 -1640 -1635 -1632 -1630 -1629 -1634 -1640 -1645 -1648 -1648 -1642 -1641 -1642 -1650 -1649 -1651 -1649 -1642 -1636 -1634 -1626 -1624 -1624 -1627 -1626 -1622 -1620 -1609 -1595 -1590 -1577 -1575 -1581 -1570 -1584 -1578 -1590 -1590 -1591 -1604 -1621 -1627 -1630 -1630 -1635 -1642 -1646 -1654 -1656 -1654 -1651 -1651 -1653 -1651 -1636 -1624 -1609 -1599 -1590 -1576 -1571 -1558 -1541 -1532 -1509 -1505 -1486 -1474 -1468 -1450 -1440 -1423 -1416 -1404 -1391 -1384 -1369 -1366 -1357 -1344 -1340 -1335 -1333 -1322 -1319 -1323 -1336 -1340 -1343 -1344 -1355 -1356 -1356 -1363 -1368 -1369 -1359 -1356 -1349 -1343 -1339 -1324 -1319 -1294 -1286 -1280 -1250 -1241 -1216 -1200 -1180 -1173 -1158 -1136 -1131 -1115 -1107 -1092 -1075 -1066 -1051 -1044 -1031 -1010 -999 -982 -963 -932
-1281 -1301 -1311 -1332 -1355 -1368 -1396 -1410 -1429 -1445 -1462 -1479 -1495 -1519 -1539 -1546 -1565 -1571 -1582 -1591 -1610 -1620 -1622 -1629 -1630 -1634 -1643 -1635 -1629 -1628 -1630 -1631 -1631 -1634 -1635 -1638 -1639 -1636 -1638 -1638 -1646 -1649 -1653 -1651 -1649 -1642 -1639 -1638 -1643 -1650 -1660 -1657 -1648 -1640 -1639 -1636 -1634 -1633 -1634 -1636 -1641 -1640 -1633 -1632 -1633 -1626 -1624 -1622 -1620 -1624 -1621 -1623 -1632 -1636 -1632 -1630 -1629 -1627 -1626 -1631 -1632 -1632 -1632 -1633 -1642 -1622 -1634 -1631 -1631 -1628 -1628 -1634 -1640 -1640 -1635 -1632 -1634 -1636 -1642 -1643 -1640 -1643 -1645 -1645 -1641 -1642 -1652 -1648 -1650 -1648 -1641 -1639 -1638 -1630 -1626 -1630 -1631 -1628 -1616 -1612 -1605 -1598 -1595 -1580 -1576 -1585 -1576 -1587 -1580 -1593 -1595 -1596 -1608 -1624 -1629 -1636 -1636 -1641 -1649 -1653 -1655 -1654 -1649 -1646 -1646 -1644 -1639 -1623 -1613 -1601 -1589 -1581 -1569 -1566 -1556 -1536 -1525 -1504 -1498 -1477 -1464 -1457 -1440 -1432 -1418 -1410 -1396 -1381 -1374 -1359 -1356 -1349 -1339 -1335 -1332 -1330 -1318 -1313 -1318 -1327 -1331 -1337 -1339 -1342 -1348 -1345 -1350 -1356 -1360 -1350 -1347 -1342 -1338 -1337 -1323 -1319 -1295 -1292 -1277 -1247 -1239 -1219 -1202 -1179 -1170 -1153 -1133 -1127 -1110 -1101 -1084 -1069 -1061 -1047 -1039 -1022 -999 -994 -974 -957 -929
-1283 -1299 -1312 -1335 -1356 -1369 -1398 -1410 -1429 -1446 -1463 -1479 -1506 -1523 -1539 -1549 -1568 -1572 -1584 -1594 -1611 -1629 -1633 -1633 -1632 -1630 -1625 -1624 -1624 -1625 -1625 -1626 -1627 -1632 -1635 -1642 -1642 -1633 -1631 -1634 -1646 -1651 -1654 -1654 -1648 -1643 -1642 -1639 -1643 -1650 -1659 -1657 -1650 -1642 -1638 -1634 -1632 -1630 -1632 -1635 -1637 -1636 -1630 -1628 -1628 -1623 -1618 -1616 -1616 -1620 -1623 -1623 -1632 -1633 -1630 -1630 -1628 -1625 -1626 -1632 -1635 -1640 -1640 -1636 -1632 -1621 -1631 -1634 -1633 -1627 -1629 -1637 -1643 -1640 -1636 -1634 -1637 -1638 -1642 -1641 -1642 -1645 -1642 -1645 -1640 -1641 -1652 -1645 -1649 -1648 -1644 -1641 -1637 -1628 -1628 -1637 -1640 -1635 -1619 -1613 -1602 -1595 -1590 -1580 -1577 -1584 -1581 -1588 -1585 -1597 -1599 -1601 -1610 -1621 -1625 -1635 -1639 -1643 -1651 -1655 -1653 -1651 -1650 -1648 -1646 -1637 -1627 -1614 -1610 -1603 -1589 -1580 -1564 -1561 -1545 -1530 -1518 -1494 -1489 -1477 -1464 -1455 -1439 -1433 -1419 -1409 -1389 -1372 -1363 -1349 -1346 -1343 -1335 -1332 -1324 -1318 -1307 -1305 -1310 -1315 -1319 -1331 -1334 -1328 -1340 -1337 -1340 -1345 -1349 -1343 -1339 -1334 -1331 -1333 -1323 -1319 -1300 -1296 -1278 -1244 -1230 -1209 -1197 -1179 -1169 -1152 -1130 -1124 -1107 -1097 -1079 -1067 -1059 -1041 -1032 -1012 -991 -984 -965 -951 -927
-1282 -1296 -1309 -1337 -1361 -1372 -1394 -1405 -1427 -1446 -1462 -1482 -1505 -1522 -1541 -1554 -1574 -1578 -1584 -1589 -1612 -1633 -1636 -1632 -1627 -1627 -1631 -1622 -1621 -1623 -1624 -1626 -1628 -1630 -1633 -1645 -1646 -1632 -1627 -1631 -1644 -1648 -1649 -1654 -1645 -1640 -1638 -1635 -1639 -1644 -1649 -1647 -1643 -1637 -1634 -1634 -1633 -1630 -1631 -1632 -1632 -1631 -1630 -1627 -1624 -1618 -1620 -1619 -1619 -1621 -1623 -1621 -1628 -1630 -1629 -1629 -1629 -1626 -1628 -1635 -1638 -1643 -1639 -1633 -1627 -1625 -1629 -1630 -1629 -1625 -1628 -1639 -1647 -1643 -1639 -1639 -1639 -1637 -1637 -1640 -1641 -1642 -1639 -1643 -1638 -1641 -1650 -1642 -1642 -1642 -1642 -1638 -1633 -1624 -1624 -1639 -1646 -1639 -1622 -1614 -1600 -1588 -1585 -1579 -1577 -1582 -1582 -1590 -1591 -1599 -1604 -1606 -1615 -1623 -1625 -1637 -1642 -1645 -1648 -1648 -1648 -1649 -1651 -1649 -1646 -1630 -1619 -1609 -1610 -1606 -1591 -1579 -1558 -1551 -1537 -1524 -1513 -1485 -1487 -1480 -1462 -1453 -1442 -1438 -1423 -1407 -1384 -1367 -1356 -1339 -1337 -1335 -1330 -1327 -1311 -1304 -1298 -1299 -1301 -1301 -1305 -1320 -1325 -1318 -1332 -1329 -1330 -1333 -1337 -1332 -1328 -1326 -1327 -1321 -1322 -1314 -1301 -1296 -1277 -1240 -1224 -1198 -1189 -1177 -1171 -1151 -1128 -1118 -1102 -1092 -1075 -1059 -1049 -1031 -1021 -1002 -994 -977 -957 -943 -923
-1282 -1296 -1309 -1335 -1362 -1375 -1394 -1405 -1428 -1445 -1464 -1479 -1493 -1518 -1539 -1550 -1569 -1575 -1584 -1589 -1612 -1630 -1632 -1630 -1624 -1628 -1640 -1628 -1621 -1621 -1624 -1626 -1626 -1626 -1628 -1640 -1641 -1631 -1625 -1629 -1635 -1636 -1639 -1641 -1638 -1634 -1634 -1632 -1632 -1634 -1636 -1635 -1631 -1629 -1631 -1637 -1636 -1630 -1629 -1631 -1630 -1630 -1628 -1627 -1623 -1615 -1621 -1624 -1624 -1621 -1620 -1619 -1625 -1627 -1625 -1626 -1630 -1628 -1628 -1636 -1639 -1639 -1632 -1630 -1632 -1636 -1635 -1629 -1628 -1625 -1628 -1637 -1647 -1644 -1645 -1645 -1644 -1641 -1636 -1638 -1639 -1638 -1637 -1638 -1638 -1642 -1647 -1644 -1636 -1637 -1634 -1631 -1628 -1620 -1620 -1633 -1641 -1636 -1621 -1614 -1598 -1588 -1584 -1582 -1579 -1582 -1583 -1591 -1599 -1598 -1606 -1610 -1621 -1630 -1631 -1638 -1641 -1646 -1643 -1638 -1637 -1641 -1643 -1642 -1639 -1625 -1616 -1604 -1602 -1598 -1581 -1569 -1548 -1540 -1525 -1516 -1508 -1482 -1476 -1472 -1456 -1449 -1439 -1436 -1419 -1403 -1380 -1365 -1353 -1333 -1328 -1324 -1320 -1317 -1302 -1296 -1293 -1291 -1290 -1290 -1295 -1307 -1312 -1305 -1322 -1320 -1320 -1321 -1323 -1319 -1318 -1323 -1326 -1311 -1317 -1311 -1295 -1289 -1273 -1242 -1228 -1198 -1187 -1175 -1168 -1150 -1125 -1114 -1092 -1085 -1073 -1053 -1040 -1019 -1010 -991 -984 -961 -947 -932 -909
-1283 -1298 -1309 -1327 -1355 -1370 -1396 -1408 -1429 -1445 -1465 -1480 -1487 -1517 -1538 -1545 -1562 -1570 -1582 -1587 -1607 -1623 -1625 -1628 -1624 -1625 -1637 -1631 -1622 -1621 -1623 -1622 -1620 -1620 -1623 -1630 -1631 -1628 -1626 -1630 -1629 -1631 -1635 -1629 -1630 -1632 -1635 -1633 -1629 -1630 -1631 -1630 -1626 -1629 -1632 -1634 -1633 -1627 -1625 -1628 -1629 -1628 -1625 -1624 -1619 -1614 -1613 -1622 -1624 -1621 -1620 -1620 -1622 -1622 -1622 -1624 -1629 -1626 -1627 -1633 -1635 -1632 -1629 -1633 -1643 -1650 -1647 -1634 -1629 -1625 -1626 -1632 -1646 -1641 -1650 -1649 -1643 -1640 -1636 -1636 -1636 -1635 -1637 -1633 -1632 -1636 -1639 -1640 -1636 -1635 -1628 -1621 -1619 -1613 -1612 -1622 -1628 -1626 -1617 -1611 -1597 -1590 -1586 -1583 -1586 -1584 -1586 -1594 -1604 -1599 -1606 -1611 -1622 -1627 -1629 -1629 -1632 -1641 -1636 -1629 -1624 -1626 -1628 -1627 -1627 -1620 -1613 -1601 -1595 -1585 -1570 -1561 -1542 -1533 -1518 -1507 -1501 -1478 -1471 -1466 -1455 -1450 -1440 -1431 -1413 -1402 -1383 -1364 -1353 -1333 -1325 -1315 -1311 -1307 -1298 -1294 -1286 -1280 -1278 -1282 -1288 -1295 -1298 -1300 -1311 -1310 -1308 -1307 -1307 -1305 -1306 -1314 -1315 -1302 -1307 -1305 -1289 -1283 -1270 -1246 -1235 -1203 -1190 -1177 -1169 -1151 -1122 -1113 -1085 -1078 -1068 -1049 -1035 -1012 -1003 -984 -974 -951 -939 -922 -895
-1283 -1302 -1312 -1327 -1353 -1371 -1400 -1412 -1429 -1447 -1465 -1480 -1489 -1517 -1536 -1543 -1557 -1565 -1580 -1585 -1601 -1614 -1618 -1624 -1623 -1620 -1634 -1628 -1625 -1625 -1624 -1621 -1620 -1622 -1622 -1623 -1625 -1627 -1626 -1629 -1630 -1632 -1634 -1629 -1632 -1634 -1637 -1632 -1628 -1630 -1632 -1630 -1626 -1626 -1627 -1627 -1626 -1626 -1624 -1625 -1625 -1625 -1622 -1621 -1615 -1613 -1612 -1618 -1622 -1621 -1618 -1619 -1620 -1618 -1617 -1621 -1625 -1624 -1626 -1629 -1630 -1627 -1631 -1639 -1657 -1664 -1655 -1634 -1627 -1623 -1625 -1631 -1639 -1640 -1651 -1650 -1641 -1638 -1637 -1636 -1635 -1635 -1636 -1633 -1627 -1632 -1630 -1632 -1631 -1630 -1622 -1615 -1612 -1604 -1603 -1609 -1615 -1614 -1611 -1607 -1596 -1589 -1589 -1590 -1593 -1588 -1589 -1595 -1604 -1601 -1607 -1611 -1621 -1623 -1624 -1622 -1623 -1632 -1629 -1626 -1620 -1618 -1616 -1615 -1615 -1613 -1608 -1595 -1588 -1574 -1564 -1557 -1541 -1532 -1512 -1502 -1496 -1478 -1473 -1468 -1459 -1453 -1439 -1429 -1413 -1406 -1386 -1363 -1354 -1338 -1328 -1317 -1309 -1304 -1295 -1290 -1280 -1276 -1276 -1283 -1289 -1292 -1293 -1295 -1300 -1301 -1300 -1299 -1296 -1292 -1293 -1300 -1299 -1293 -1298 -1297 -1284 -1271 -1267 -1244 -1234 -1202 -1190 -1174 -1166 -1151 -1118 -1109 -1085 -1075 -1057 -1040 -1027 -1007 -999 -977 -965 -945 -931 -912 -889
-1287 -1306 -1316 -1333 -1359 -1375 -1402 -1413 -1428 -1449 -1466 -1481 -1494 -1512 -1532 -1539 -1550 -1559 -1579 -1588 -1604 -1610 -1612 -1614 -1617 -1616 -1624 -1623 -1622 -1624 -1625 -1623 -1625 -1628 -1624 -1619 -1622 -1627 -1629 -1625 -1630 -1633 -1634 -1648 -1651 -1645 -1638 -1626 -1625 -1629 -1632 -1629 -1625 -1626 -1625 -1626 -1629 -1632 -1629 -1622 -1622 -1625 -1624 -1622 -1618 -1610 -1611 -1612 -1616 -1618 -1617 -1619 -1618 -1615 -1616 -1621 -1626 -1624 -1626 -1627 -1625 -1626 -1633 -1640 -1662 -1671 -1652 -1630 -1624 -1621 -1624 -1631 -1630 -1639 -1649 -1649 -1642 -1640 -1644 -1639 -1636 -1638 -1639 -1636 -1626 -1630 -1627 -1624 -1625 -1623 -1615 -1610 -1608 -1600 -1598 -1601 -1602 -1603 -1606 -1605 -1597 -1586 -1587 -1591 -1588 -1588 -1588 -1591 -1598 -1598 -1604 -1608 -1619 -1623 -1624 -1623 -1624 -1630 -1623 -1621 -1618 -1615 -1611 -1607 -1605 -1604 -1599 -1588 -1580 -1568 -1559 -1553 -1537 -1530 -1514 -1500 -1493 -1478 -1476 -1473 -1460 -1452 -1439 -1432 -1418 -1407 -1381 -1361 -1353 -1338 -1330 -1321 -1311 -1304 -1293 -1288 -1280 -1279 -1280 -1290 -1295 -1297 -1296 -1295 -1294 -1297 -1296 -1295 -1292 -1287 -1289 -1294 -1292 -1289 -1289 -1289 -1278 -1269 -1261 -1239 -1228 -1199 -1188 -1167 -1158 -1140 -1110 -1104 -1079 -1071 -1051 -1032 -1021 -1005 -997 -970 -955 -936 -918 -901 -878
-1289 -1304 -1315 -1338 -1362 -1375 -1400 -1411 -1428 -1451 -1469 -1481 -1490 -1508 -1531 -1540 -1557 -1565 -1582 -1589 -1603 -1605 -1603 -1608 -1607 -1614 -1621 -1620 -1620 -1620 -1619 -1619 -1622 -1625 -1621 -1618 -1621 -1625 -1626 -1619 -1623 -1627 -1632 -1659 -1661 -1651 -1638 -1625 -1625 -1628 -1629 -1627 -1624 -1624 -1624 -1631 -1635 -1635 -1629 -1619 -1622 -1624 -1627 -1623 -1618 -1610 -1611 -1608 -1610 -1613 -1616 -1620 -1617 -1614 -1618 -1623 -1629 -1629 -1631 -1631 -1629 -1629 -1631 -1634 -1648 -1654 -1645 -1630 -1625 -1626 -1627 -1629 -1631 -1638 -1647 -1650 -1647 -1646 -1650 -1644 -1641 -1640 -1644 -1636 -1626 -1628 -1622 -1617 -1619 -1617 -1610 -1603 -1600 -1595 -1594 -1595 -1595 -1597 -1604 -1605 -1597 -1585 -1583 -1582 -1579 -1586 -1585 -1586 -1594 -1591 -1597 -1601 -1610 -1618 -1622 -1625 -1628 -1632 -1619 -1615 -1612 -1610 -1606 -1602 -1598 -1595 -1591 -1580 -1574 -1563 -1555 -1548 -1530 -1522 -1510 -1498 -1492 -1481 -1478 -1470 -1455 -1449 -1441 -1436 -1418 -1404 -1376 -1356 -1347 -1334 -1329 -1321 -1309 -1303 -1294 -1289 -1282 -1282 -1283 -1291 -1296 -1297 -1295 -1288 -1289 -1291 -1292 -1291 -1291 -1289 -1291 -1294 -1292 -1285 -1284 -1281 -1267 -1266 -1254 -1231 -1217 -1193 -1184 -1164 -1154 -1131 -1109 -1101 -1076 -1067 -1047 -1026 -1017 -1010 -1000 -964 -940 -930 -905 -888 -864
-1291 -1306 -1317 -1343 -1367 -1378 -1400 -1411 -1430 -1454 -1470 -1482 -1487 -1510 -1533 -1547 -1569 -1574 -1582 -1588 -1594 -1600 -1598 -1604 -1604 -1609 -1609 -1617 -1625 -1625 -1616 -1613 -1615 -1616 -1614 -1617 -1618 -1620 -1621 -1618 -1617 -1618 -1626 -1639 -1649 -1640 -1632 -1626 -1624 -1625 -1627 -1626 -1623 -1621 -1623 -1629 -1631 -1631 -1625 -1621 -1622 -1625 -1628 -1625 -1617 -1610 -1608 -1610 -1607 -1607 -1615 -1619 -1620 -1620 -1623 -1626 -1629 -1633 -1636 -1638 -1637 -1633 -1630 -1630 -1634 -1634 -1641 -1636 -1634 -1638 -1638 -1634 -1632 -1639 -1647 -1649 -1648 -1647 -1647 -1643 -1641 -1641 -1641 -1631 -1625 -1625 -1619 -1614 -1611 -1608 -1608 -1605 -1598 -1590 -1590 -1592 -1595 -1597 -1601 -1601 -1594 -1584 -1580 -1579 -1581 -1584 -1583 -1579 -1591 -1589 -1594 -1596 -1603 -1617 -1623 -1627 -1627 -1626 -1615 -1613 -1609 -1606 -1601 -1598 -1597 -1591 -1584 -1571 -1567 -1561 -1552 -1544 -1523 -1513 -1508 -1496 -1495 -1484 -1481 -1464 -1453 -1450 -1440 -1431 -1408 -1397 -1378 -1356 -1345 -1335 -1331 -1319 -1306 -1301 -1291 -1286 -1282 -1287 -1287 -1291 -1294 -1292 -1290 -1284 -1283 -1285 -1288 -1290 -1295 -1292 -1291 -1290 -1290 -1282 -1274 -1274 -1259 -1251 -1243 -1215 -1202 -1183 -1176 -1157 -1147 -1128 -1103 -1095 -1078 -1069 -1054 -1026 -1015 -1013 -1005 -953 -926 -914 -896 -880 -854
-1290 -1314 -1324 -1347 -1373 -1384 -1405 -1415 -1434 -1456 -1468 -1483 -1494 -1515 -1532 -1544 -1564 -1568 -1577 -1580 -1588 -1596 -1597 -1601 -1604 -1603 -1604 -1607 -1618 -1619 -1617 -1614 -1613 -1608 -1607 -1614 -1615 -1616 -1617 -1618 -1613 -1611 -1620 -1630 -1520 -1632 -1628 -1626 -1624 -1623 -1625 -1626 -1625 -1626 -1627 -1626 -1626 -1625 -1623 -1623 -1624 -1625 -1626 -1622 -1610 -1609 -1607 -1612 -1607 -1608 -1615 -1617 -1622 -1626 -1630 -1630 -1631 -1637 -1640 -1640 -1638 -1630 -1630 -1633 -1634 -1633 -1639 -1640 -1642 -1647 -1646 -1641 -1636 -1643 -1648 -1647 -1648 -1645 -1644 -1641 -1639 -1635 -1633 -1628 -1623 -1622 -1615 -1613 -1607 -1604 -1605 -1603 -1597 -1588 -1587 -1590 -1592 -1594 -1596 -1596 -1592 -1586 -1581 -1581 -1582 -1580 -1582 -1576 -1585 -1588 -1593 -1597 -1607 -1621 -1624 -1625 -1624 -1620 -1616 -1615 -1609 -1605 -1599 -1597 -1598 -1588 -1577 -1563 -1561 -1557 -1547 -1541 -1521 -1511 -1508 -1498 -1497 -1479 -1477 -1463 -1450 -1447 -1432 -1419 -1395 -1388 -1378 -1356 -1346 -1338 -1333 -1318 -1305 -1299 -1291 -1288 -1293 -1302 -1301 -1295 -1293 -1286 -1283 -1286 -1285 -1287 -1291 -1295 -1298 -1293 -1290 -1285 -1283 -1277 -1264 -1264 -1251 -1244 -1231 -1200 -1191 -1175 -1166 -1148 -1138 -1116 -1098 -1092 -1073 -1065 -1055 -1031 -1017 -1010 -1004 -944 -921 -905 -888 -874 -848
-1294 -1317 -1327 -1347 -1372 -1385 -1407 -1418 -1437 -1458 -1469 -1483 -1500 -1519 -1532 -1541 -1552 -1558 -1571 -1578 -1581 -1591 -1593 -1600 -1600 -1600 -1597 -1598 -1602 -1604 -1610 -1613 -1611 -1603 -1603 -1613 -1614 -1614 -1611 -1614 -1609 -1607 -1617 -1623 -1625 -1627 -1626 -1624 -1622 -1622 -1622 -1623 -1626 -1630 -1629 -1623 -1621 -1621 -1620 -1621 -1623 -1624 -1621 -1618 -1608 -1609 -1611 -1612 -1607 -1609 -1620 -1621 -1623 -1627 -1630 -1632 -1632 -1637 -1640 -1639 -1637 -1628 -1628 -1632 -1635 -1633 -1637 -1639 -1644 -1650 -1648 -1644 -1641 -1648 -1649 -1647 -1646 -1648 -1646 -1641 -1637 -1628 -1628 -1625 -1621 -1619 -1612 -1609 -1603 -1600 -1597 -1595 -1593 -1587 -1585 -1585 -1587 -1589 -1592 -1592 -1592 -1587 -1584 -1583 -1583 -1582 -1581 -1578 -1581 -1587 -1598 -1606 -1620 -1630 -1630 -1625 -1625 -1622 -1621 -1620 -1611 -1607 -1601 -1598 -1598 -1584 -1571 -1558 -1556 -1554 -1542 -1537 -1523 -1515 -1508 -1498 -1495 -1474 -1471 -1465 -1448 -1442 -1424 -1413 -1393 -1385 -1374 -1355 -1346 -1341 -1337 -1322 -1305 -1298 -1294 -1297 -1322 -1336 -1332 -1312 -1300 -1285 -1282 -1289 -1291 -1291 -1295 -1296 -1291 -1284 -1282 -1277 -1272 -1270 -1256 -1251 -1240 -1236 -1220 -1192 -1182 -1165 -1157 -1140 -1130 -1116 -1092 -1086 -1064 -1055 -1044 -1023 -1010 -999 -993 -956 -918 -901 -884 -869 -841
-1293 -1315 -1325 -1345 -1371 -1385 -1406 -1414 -1435 -1458 -1467 -1482 -1498 -1514 -1531 -1539 -1549 -1553 -1564 -1569 -1578 -1587 -1591 -1595 -1593 -1597 -1597 -1595 -1596 -1596 -1604 -1609 -1608 -1604 -1604 -1611 -1613 -1614 -1608 -1610 -1608 -1609 -1617 -1615 -1617 -1622 -1624 -1619 -1618 -1619 -1619 -1619 -1623 -1625 -1623 -1617 -1616 -1619 -1620 -1617 -1620 -1621 -1618 -1616 -1609 -1609 -1608 -1613 -1611 -1616 -1627 -1626 -1624 -1625 -1628 -1630 -1632 -1633 -1636 -1636 -1635 -1627 -1627 -1630 -1632 -1630 -1635 -1634 -1639 -1646 -1646 -1648 -1650 -1661 -1665 -1659 -1647 -1644 -1640 -1635 -1633 -1628 -1629 -1625 -1621 -1617 -1611 -1607 -1601 -1599 -1594 -1592 -1591 -1584 -1581 -1580 -1583 -1587 -1593 -1593 -1592 -1587 -1584 -1583 -1583 -1586 -1581 -1589 -1585 -1599 -1614 -1624 -1641 -1646 -1643 -1635 -1634 -1630 -1628 -1627 -1621 -1621 -1613 -1605 -1603 -1588 -1578 -1562 -1557 -1556 -1543 -1534 -1520 -1514 -1505 -1499 -1494 -1477 -1471 -1464 -1448 -1441 -1421 -1414 -1398 -1387 -1374 -1358 -1352 -1344 -1339 -1327 -1309 -1299 -1293 -1303 -1342 -1365 -1363 -1335 -1316 -1293 -1290 -1294 -1293 -1292 -1295 -1295 -1281 -1272 -1271 -1266 -1262 -1261 -1248 -1240 -1232 -1224 -1210 -1190 -1178 -1158 -1151 -1136 -1126 -1105 -1085 -1080 -1065 -1056 -1038 -1013 -1000 -986 -976 -941 -917 -896 -879 -865 -838
-1291 -1316 -1328 -1350 -1373 -1385 -1406 -1416 -1437 -1459 -1467 -1480 -1488 -1502 -1521 -1532 -1551 -1554 -1561 -1569 -1579 -1585 -1588 -1592 -1593 -1595 -1594 -1596 -1595 -1595 -1602 -1607 -1607 -1606 -1607 -1611 -1613 -1614 -1606 -1611 -1612 -1612 -1614 -1612 -1613 -1620 -1622 -1618 -1615 -1617 -1618 -1619 -1618 -1615 -1614 -1612 -1614 -1619 -1620 -1616 -1618 -1618 -1614 -1613 -1615 -1615 -1615 -1618 -1615 -1626 -1631 -1628 -1624 -1624 -1626 -1628 -1631 -1632 -1633 -1633 -1633 -1628 -1627 -1629 -1627 -1628 -1633 -1632 -1634 -1641 -1642 -1655 -1668 -1686 -1688 -1678 -1650 -1640 -1629 -1628 -1629 -1636 -1628 -1622 -1618 -1615 -1608 -1602 -1599 -1600 -1594 -1586 -1582 -1575 -1574 -1580 -1583 -1586 -1592 -1594 -1593 -1587 -1585 -1584 -1582 -1588 -1581 -1602 -1598 -1619 -1636 -1647 -1663 -1664 -1660 -1650 -1647 -1637 -1637 -1637 -1638 -1638 -1627 -1615 -1609 -1597 -1589 -1571 -1563 -1561 -1546 -1535 -1519 -1512 -1505 -1500 -1498 -1486 -1477 -1458 -1446 -1438 -1424 -1417 -1397 -1386 -1374 -1361 -1355 -1344 -1336 -1327 -1314 -1303 -1294 -1303 -1337 -1359 -1361 -1339 -1320 -1296 -1295 -1295 -1295 -1292 -1292 -1289 -1275 -1265 -1263 -1259 -1256 -1252 -1246 -1244 -1232 -1220 -1205 -1193 -1182 -1157 -1149 -1133 -1123 -1105 -1081 -1075 -1062 -1055 -1035 -1008 -996 -976 -962 -933 -914 -896 -875 -864 -836
-1291 -1316 -1332 -1356 -1374 -1386 -1408 -1417 -1437 -1457 -1465 -1476 -1482 -1494 -1512 -1524 -1546 -1550 -1557 -1565 -1579 -1580 -1581 -1588 -1593 -1594 -1594 -1593 -1593 -1594 -1599 -1606 -1605 -1604 -1606 -1612 -1614 -1616 -1610 -1614 -1617 -1618 -1619 -1621 -1617 -1620 -1622 -1621 -1618 -1618 -1620 -1620 -1617 -1611 -1609 -1612 -1617 -1622 -1619 -1615 -1620 -1619 -1614 -1614 -1626 -1624 -1628 -1624 -1625 -1638 -1633 -1631 -1627 -1626 -1626 -1628 -1632 -1631 -1630 -1631 -1632 -1631 -1631 -1630 -1627 -1628 -1633 -1633 -1634 -1637 -1638 -1655 -1680 -1699 -1697 -1686 -1653 -1639 -1628 -1628 -1628 -1627 -1622 -1615 -1610 -1609 -1603 -1595 -1594 -1594 -1589 -1580 -1575 -1570 -1573 -1583 -1588 -1588 -1591 -1593 -1592 -1589 -1590 -1587 -1584 -1590 -1590 -1610 -1618 -1632 -1650 -1660 -1674 -1678 -1676 -1667 -1660 -1647 -1644 -1643 -1642 -1640 -1628 -1616 -1609 -1597 -1592 -1575 -1568 -1563 -1546 -1535 -1519 -1511 -1505 -1498 -1498 -1500 -1487 -1457 -1441 -1434 -1426 -1420 -1398 -1389 -1378 -1365 -1358 -1344 -1337 -1327 -1317 -1308 -1297 -1302 -1323 -1336 -1336 -1322 -1309 -1295 -1296 -1300 -1300 -1298 -1289 -1282 -1269 -1261 -1257 -1255 -1254 -1248 -1262 -1266 -1244 -1227 -1205 -1193 -1185 -1162 -1152 -1132 -1121 -1104 -1075 -1067 -1058 -1051 -1034 -1011 -998 -971 -956 -934 -914 -892 -869 -860 -831
-1293 -1313 -1329 -1355 -1373 -1384 -1405 -1413 -1431 -1452 -1461 -1476 -1481 -1495 -1507 -1517 -1536 -1541 -1555 -1563 -1573 -1578 -1579 -1587 -1590 -1591 -1596 -1592 -1593 -1594 -1598 -1606 -1605 -1604 -1606 -1613 -1615 -1616 -1616 -1615 -1620 -1623 -1626 -1622 -1622 -1622 -1622 -1620 -1618 -1618 -1616 -1616 -1618 -1613 -1610 -1615 -1622 -1622 -1616 -1612 -1619 -1619 -1618 -1621 -1630 -1632 -1634 -1630 -1637 -1646 -1636 -1635 -1632 -1630 -1629 -1631 -1632 -1630 -1630 -1630 -1630 -1632 -1632 -1632 -1632 -1631 -1639 -1639 -1636 -1633 -1632 -1646 -1674 -1685 -1682 -1674 -1650 -1639 -1631 -1627 -1627 -1621 -1618 -1610 -1605 -1601 -1600 -1590 -1585 -1584 -1579 -1575 -1572 -1574 -1578 -1585 -1589 -1589 -1591 -1593 -1591 -1592 -1593 -1592 -1586 -1598 -1605 -1618 -1641 -1643 -1659 -1666 -1679 -1686 -1684 -1675 -1668 -1654 -1644 -1641 -1636 -1632 -1620 -1610 -1604 -1597 -1590 -1574 -1567 -1559 -1543 -1533 -1518 -1512 -1507 -1496 -1492 -1502 -1484 -1461 -1440 -1431 -1423 -1417 -1400 -1396 -1389 -1373 -1363 -1342 -1336 -1331 -1322 -1314 -1303 -1304 -1312 -1315 -1312 -1304 -1298 -1294 -1298 -1308 -1304 -1302 -1289 -1280 -1268 -1259 -1254 -1251 -1250 -1250 -1275 -1275 -1250 -1233 -1206 -1190 -1185 -1168 -1156 -1132 -1120 -1101 -1075 -1066 -1056 -1047 -1031 -1011 -1001 -975 -960 -936 -905 -885 -859 -852 -824
-1289 -1312 -1325 -1349 -1370 -1380 -1402 -1410 -1426 -1445 -1454 -1473 -1480 -1498 -1509 -1515 -1530 -1537 -1549 -1557 -1566 -1578 -1583 -1584 -1592 -1594 -1596 -1596 -1595 -1593 -1594 -1601 -1600 -1600 -1603 -1609 -1613 -1615 -1615 -1616 -1618 -1618 -1621 -1620 -1620 -1618 -1616 -1614 -1616 -1616 -1611 -1610 -1616 -1615 -1611 -1612 -1616 -1617 -1612 -1610 -1616 -1616 -1619 -1623 -1631 -1635 -1637 -1631 -1644 -1649 -1638 -1637 -1635 -1632 -1633 -1634 -1633 -1632 -1632 -1631 -1631 -1634 -1632 -1632 -1635 -1638 -1643 -1643 -1639 -1631 -1629 -1637 -1646 -1660 -1657 -1652 -1639 -1633 -1628 -1624 -1622 -1619 -1617 -1608 -1600 -1599 -1587 -1581 -1575 -1574 -1570 -1569 -1571 -1580 -1584 -1588 -1588 -1587 -1589 -1592 -1591 -1592 -1596 -1598 -1597 -1611 -1625 -1629 -1653 -1653 -1665 -1670 -1681 -1685 -1682 -1672 -1668 -1656 -1641 -1638 -1631 -1626 -1614 -1604 -1598 -1593 -1588 -1572 -1563 -1552 -1538 -1528 -1513 -1510 -1508 -1498 -1491 -1486 -1476 -1461 -1440 -1430 -1420 -1415 -1406 -1406 -1398 -1378 -1364 -1341 -1336 -1333 -1322 -1315 -1308 -1305 -1303 -1302 -1300 -1294 -1292 -1292 -1298 -1305 -1299 -1297 -1285 -1278 -1270 -1258 -1251 -1246 -1244 -1242 -1265 -1266 -1242 -1228 -1205 -1192 -1188 -1171 -1160 -1134 -1121 -1099 -1077 -1068 -1051 -1042 -1024 -1004 -994 -972 -959 -931 -901 -881 -854 -847 -821
-1286 -1311 -1324 -1348 -1365 -1373 -1397 -1410 -1429 -1442 -1450 -1468 -1480 -1500 -1512 -1516 -1529 -1534 -1544 -1548 -1562 -1581 -1586 -1584 -1593 -1595 -1598 -1598 -1594 -1592 -1591 -1593 -1594 -1596 -1597 -1602 -1607 -1611 -1611 -1611 -1613 -1612 -1614 -1616 -1618 -1616 -1614 -1612 -1613 -1613 -1612 -1609 -1612 -1614 -1612 -1607 -1608 -1614 -1614 -1614 -1616 -1616 -1619 -1621 -1623 -1624 -1631 -1631 -1642 -1645 -1635 -1633 -1631 -1631 -1631 -1632 -1634 -1635 -1635 -1634 -1635 -1638 -1633 -1634 -1637 -1637 -1643 -1645 -1644 -1636 -1632 -1633 -1624 -1638 -1634 -1633 -1631 -1630 -1624 -1620 -1617 -1615 -1614 -1605 -1596 -1595 -1580 -1574 -1574 -1573 -1566 -1570 -1576 -1586 -1587 -1590 -1589 -1588 -1587 -1587 -1591 -1593 -1596 -1605 -1608 -1623 -1634 -1637 -1655 -1657 -1665 -1667 -1673 -1673 -1670 -1662 -1660 -1651 -1640 -1635 -1625 -1618 -1608 -1599 -1593 -1587 -1583 -1570 -1560 -1546 -1534 -1525 -1509 -1508 -1510 -1496 -1491 -1483 -1476 -1459 -1439 -1429 -1421 -1417 -1413 -1414 -1403 -1378 -1365 -1345 -1340 -1334 -1319 -1313 -1307 -1304 -1297 -1299 -1296 -1292 -1289 -1289 -1292 -1297 -1295 -1292 -1282 -1275 -1268 -1254 -1248 -1238 -1233 -1227 -1236 -1232 -1227 -1218 -1203 -1197 -1192 -1173 -1161 -1141 -1130 -1101 -1077 -1067 -1045 -1037 -1021 -998 -985 -962 -951 -925 -896 -876 -853 -842 -818
-1284 -1307 -1322 -1348 -1368 -1370 -1392 -1406 -1427 -1443 -1452 -1464 -1476 -1494 -1510 -1516 -1530 -1536 -1544 -1548 -1564 -1585 -1588 -1586 -1593 -1592 -1593 -1596 -1594 -1593 -1590 -1593 -1595 -1596 -1596 -1598 -1601 -1602 -1606 -1605 -1611 -1611 -1610 -1610 -1616 -1619 -1620 -1615 -1609 -1608 -1610 -1611 -1610 -1612 -1612 -1608 -1608 -1618 -1622 -1619 -1613 -1612 -1616 -1617 -1610 -1615 -1619 -1627 -1638 -1640 -1632 -1628 -1626 -1626 -1626 -1629 -1635 -1636 -1639 -1640 -1638 -1638 -1636 -1637 -1640 -1637 -1643 -1643 -1643 -1637 -1635 -1633 -1618 -1628 -1619 -1620 -1625 -1625 -1624 -1619 -1613 -1615 -1608 -1599 -1590 -1587 -1574 -1569 -1572 -1573 -1569 -1576 -1581 -1585 -1587 -1590 -1590 -1592 -1584 -1582 -1588 -1594 -1597 -1606 -1610 -1625 -1637 -1643 -1659 -1656 -1659 -1660 -1660 -1658 -1656 -1649 -1647 -1639 -1630 -1625 -1610 -1605 -1598 -1590 -1585 -1578 -1574 -1563 -1555 -1542 -1532 -1524 -1507 -1504 -1503 -1490 -1486 -1476 -1471 -1457 -1440 -1429 -1421 -1417 -1409 -1410 -1401 -1379 -1367 -1346 -1340 -1333 -1319 -1313 -1306 -1302 -1294 -1296 -1296 -1293 -1292 -1287 -1287 -1295 -1292 -1289 -1283 -1276 -1264 -1251 -1243 -1231 -1223 -1212 -1208 -1202 -1215 -1206 -1200 -1200 -1196 -1175 -1164 -1146 -1136 -1104 -1075 -1064 -1043 -1036 -1019 -995 -981 -954 -943 -920 -892 -877 -854 -839 -815
-1280 -1305 -1320 -1348 -1365 -1373 -1390 -1401 -1420 -1439 -1448 -1461 -1467 -1487 -1506 -1516 -1532 -1536 -1544 -1550 -1571 -1590 -1588 -1586 -1590 -1592 -1596 -1596 -1594 -1594 -1591 -1591 -1592 -1595 -1596 -1600 -1601 -1597 -1600 -1600 -1603 -1600 -1600 -1600 -1611 -1619 -1621 -1617 -1607 -1605 -1608 -1611 -1611 -1610 -1611 -1611 -1612 -1622 -1625 -1618 -1609 -1608 -1611 -1612 -1606 -1610 -1612 -1621 -1631 -1630 -1627 -1623 -1621 -1623 -1626 -1629 -1634 -1636 -1639 -1642 -1639 -1638 -1639 -1641 -1644 -1637 -1643 -1638 -1637 -1635 -1633 -1630 -1623 -1628 -1617 -1616 -1619 -1620 -1622 -1616 -1611 -1613 -1603 -1593 -1585 -1578 -1566 -1563 -1566 -1568 -1568 -1575 -1578 -1580 -1582 -1584 -1588 -1591 -1583 -1579 -1582 -1590 -1599 -1607 -1611 -1621 -1645 -1646 -1658 -1650 -1650 -1651 -1648 -1645 -1645 -1639 -1635 -1625 -1616 -1611 -1597 -1593 -1586 -1577 -1573 -1566 -1562 -1555 -1549 -1537 -1529 -1522 -1503 -1497 -1496 -1483 -1478 -1470 -1466 -1452 -1437 -1427 -1414 -1407 -1395 -1393 -1388 -1373 -1362 -1343 -1338 -1332 -1319 -1311 -1303 -1302 -1296 -1296 -1298 -1295 -1292 -1285 -1284 -1280 -1283 -1280 -1279 -1275 -1261 -1246 -1238 -1226 -1218 -1203 -1198 -1197 -1209 -1209 -1202 -1203 -1198 -1178 -1166 -1144 -1134 -1106 -1069 -1058 -1040 -1032 -1014 -990 -975 -948 -937 -913 -891 -874 -853 -839 -813
-1274 -1302 -1316 -1343 -1363 -1374 -1390 -1397 -1414 -1433 -1441 -1457 -1464 -1484 -1503 -1513 -1532 -1536 -1546 -1555 -1577 -1588 -1586 -1586 -1585 -1589 -1594 -1594 -1594 -1595 -1594 -1591 -1590 -1594 -1599 -1602 -1602 -1597 -1592 -1595 -1591 -1587 -1590 -1597 -1607 -1612 -1614 -1612 -1608 -1606 -1610 -1613 -1614 -1614 -1616 -1621 -1623 -1629 -1629 -1619 -1608 -1607 -1611 -1610 -1605 -1607 -1610 -1618 -1619 -1619 -1617 -1616 -1617 -1622 -1628 -1626 -1629 -1631 -1632 -1636 -1636 -1636 -1640 -1641 -1644 -1633 -1638 -1633 -1632 -1633 -1632 -1628 -1626 -1628 -1621 -1620 -1620 -1622 -1623 -1615 -1611 -1606 -1598 -1587 -1577 -1572 -1561 -1560 -1560 -1560 -1559 -1565 -1569 -1571 -1573 -1574 -1578 -1582 -1582 -1581 -1585 -1585 -1594 -1603 -1611 -1621 -1635 -1639 -1649 -1638 -1638 -1637 -1632 -1629 -1631 -1630 -1625 -1613 -1602 -1595 -1584 -1582 -1574 -1563 -1560 -1554 -1549 -1543 -1537 -1528 -1524 -1517 -1497 -1491 -1491 -1480 -1473 -1463 -1459 -1445 -1432 -1423 -1404 -1395 -1380 -1375 -1371 -1365 -1357 -1340 -1335 -1327 -1314 -1306 -1296 -1296 -1294 -1296 -1298 -1292 -1287 -1280 -1281 -1276 -1276 -1273 -1273 -1272 -1263 -1250 -1238 -1223 -1217 -1202 -1197 -1199 -1208 -1210 -1207 -1203 -1198 -1180 -1165 -1140 -1128 -1104 -1075 -1059 -1030 -1021 -1002 -983 -971 -945 -932 -910 -890 -875 -854 -839 -809
-1266 -1293 -1308 -1336 -1359 -1370 -1387 -1395 -1411 -1429 -1438 -1458 -1465 -1489 -1511 -1520 -1538 -1543 -1554 -1559 -1578 -1584 -1584 -1586 -1584 -1584 -1589 -1589 -1593 -1595 -1600 -1595 -1594 -1596 -1599 -1601 -1600 -1599 -1592 -1595 -1591 -1588 -1591 -1596 -1603 -1604 -1605 -1608 -1609 -1607 -1610 -1613 -1614 -1618 -1622 -1633 -1636 -1637 -1634 -1620 -1606 -1607 -1613 -1611 -1603 -1610 -1612 -1616 -1617 -1614 -1614 -1614 -1617 -1622 -1625 -1623 -1623 -1626 -1628 -1631 -1632 -1633 -1637 -1638 -1639 -1627 -1634 -1630 -1632 -1637 -1635 -1632 -1628 -1632 -1627 -1623 -1622 -1625 -1624 -1613 -1607 -1605 -1593 -1581 -1571 -1567 -1558 -1557 -1553 -1551 -1549 -1551 -1554 -1558 -1559 -1564 -1566 -1567 -1575 -1584 -1593 -1579 -1588 -1597 -1606 -1619 -1628 -1626 -1637 -1625 -1626 -1624 -1618 -1613 -1614 -1615 -1611 -1599 -1587 -1579 -1568 -1566 -1558 -1548 -1545 -1538 -1533 -1529 -1525 -1515 -1511 -1506 -1490 -1484 -1484 -1470 -1462 -1449 -1454 -1435 -1423 -1415 -1400 -1391 -1377 -1368 -1360 -1356 -1348 -1332 -1327 -1317 -1305 -1300 -1290 -1287 -1286 -1288 -1288 -1284 -1281 -1276 -1276 -1279 -1276 -1275 -1276 -1276 -1269 -1255 -1243 -1221 -1215 -1203 -1199 -1204 -1210 -1216 -1215 -1199 -1193 -1177 -1164 -1132 -1119 -1096 -1066 -1056 -1025 -1015 -995 -977 -967 -942 -930 -909 -888 -872 -855 -841 -812
-1261 -1287 -1303 -1328 -1352 -1362 -1381 -1392 -1411 -1430 -1439 -1459 -1466 -1492 -1519 -1527 -1541 -1547 -1560 -1568 -1582 -1588 -1587 -1588 -1587 -1583 -1588 -1592 -1594 -1595 -1601 -1598 -1598 -1600 -1600 -1602 -1604 -1607 -1599 -1597 -1593 -1592 -1592 -1593 -1600 -1602 -1602 -1605 -1605 -1608 -1611 -1614 -1619 -1622 -1626 -1637 -1641 -1640 -1635 -1618 -1607 -1609 -1614 -1612 -1604 -1611 -1614 -1613 -1610 -1617 -1617 -1617 -1619 -1622 -1622 -1621 -1622 -1623 -1624 -1633 -1632 -1629 -1634 -1636 -1635 -1627 -1634 -1632 -1635 -1639 -1638 -1636 -1640 -1637 -1630 -1626 -1624 -1626 -1622 -1611 -1605 -1603 -1591 -1581 -1569 -1566 -1556 -1555 -1549 -1546 -1541 -1541 -1541 -1544 -1546 -1554 -1556 -1556 -1565 -1575 -1588 -1578 -1583 -1593 -1601 -1611 -1619 -1615 -1622 -1612 -1612 -1610 -1606 -1600 -1598 -1595 -1590 -1578 -1568 -1562 -1551 -1549 -1541 -1532 -1529 -1522 -1517 -1514 -1511 -1502 -1494 -1491 -1482 -1477 -1476 -1457 -1450 -1437 -1441 -1418 -1407 -1402 -1390 -1384 -1371 -1362 -1353 -1343 -1334 -1319 -1314 -1305 -1294 -1291 -1284 -1279 -1275 -1276 -1276 -1275 -1276 -1272 -1269 -1272 -1270 -1271 -1276 -1276 -1271 -1254 -1243 -1220 -1213 -1205 -1201 -1203 -1206 -1209 -1211 -1195 -1188 -1170 -1155 -1124 -1111 -1089 -1063 -1052 -1023 -1015 -997 -973 -959 -932 -922 -901 -884 -870 -853 -841 -815
-1258 -1285 -1300 -1320 -1342 -1353 -1372 -1385 -1409 -1431 -1441 -1459 -1467 -1490 -1517 -1527 -1540 -1545 -1560 -1567 -1583 -1590 -1590 -1591 -1586 -1589 -1594 -1595 -1593 -1594 -1598 -1597 -1600 -1605 -1604 -1606 -1611 -1615 -1608 -1598 -1592 -1592 -1591 -1586 -1600 -1603 -1604 -1607 -1610 -1609 -1612 -1617 -1621 -1621 -1622 -1626 -1629 -1630 -1625 -1612 -1608 -1610 -1609 -1606 -1600 -1603 -1606 -1608 -1605 -1613 -1614 -1616 -1627 -1632 -1628 -1623 -1621 -1620 -1622 -1634 -1634 -1626 -1631 -1633 -1636 -1631 -1633 -1632 -1634 -1638 -1637 -1634 -1627 -1634 -1628 -1625 -1627 -1627 -1622 -1610 -1604 -1600 -1594 -1586 -1574 -1568 -1558 -1556 -1549 -1545 -1541 -1535 -1534 -1534 -1535 -1543 -1546 -1548 -1557 -1563 -1576 -1572 -1580 -1594 -1596 -1600 -1607 -1603 -1603 -1596 -1590 -1588 -1587 -1581 -1578 -1573 -1568 -1556 -1548 -1544 -1535 -1532 -1525 -1517 -1513 -1508 -1504 -1499 -1497 -1493 -1482 -1477 -1472 -1468 -1461 -1445 -1437 -1423 -1425 -1403 -1394 -1390 -1378 -1371 -1358 -1352 -1345 -1330 -1321 -1308 -1303 -1294 -1285 -1282 -1277 -1271 -1266 -1268 -1267 -1265 -1265 -1261 -1257 -1264 -1258 -1262 -1268 -1269 -1264 -1247 -1236 -1215 -1210 -1209 -1207 -1210 -1205 -1207 -1199 -1193 -1184 -1161 -1146 -1117 -1105 -1082 -1054 -1042 -1013 -1005 -995 -972 -953 -919 -908 -890 -878 -865 -846 -835 -812
-1257 -1284 -1295 -1313 -1332 -1345 -1368 -1380 -1403 -1428 -1440 -1457 -1470 -1490 -1515 -1526 -1542 -1549 -1561 -1562 -1577 -1587 -1588 -1590 -1588 -1596 -1597 -1593 -1589 -1589 -1592 -1595 -1601 -1609 -1607 -1608 -1614 -1619 -1617 -1613 -1593 -1591 -1591 -1588 -1604 -1608 -1608 -1611 -1609 -1607 -1611 -1616 -1619 -1617 -1616 -1611 -1611 -1613 -1612 -1606 -1606 -1609 -1605 -1601 -1596 -1602 -1599 -1601 -1596 -1604 -1613 -1619 -1641 -1649 -1640 -1629 -1620 -1621 -1622 -1630 -1631 -1627 -1628 -1632 -1636 -1631 -1632 -1629 -1632 -1636 -1635 -1630 -1622 -1627 -1624 -1622 -1624 -1624 -1617 -1610 -1607 -1601 -1598 -1593 -1582 -1583 -1562 -1559 -1552 -1548 -1542 -1533 -1529 -1528 -1531 -1535 -1537 -1542 -1551 -1554 -1567 -1569 -1574 -1587 -1590 -1585 -1589 -1585 -1577 -1573 -1564 -1560 -1560 -1558 -1557 -1552 -1546 -1535 -1529 -1525 -1516 -1511 -1506 -1501 -1498 -1495 -1492 -1487 -1487 -1485 -1472 -1465 -1458 -1455 -1451 -1428 -1422 -1411 -1413 -1392 -1384 -1380 -1367 -1360 -1350 -1344 -1337 -1322 -1314 -1302 -1295 -1283 -1275 -1273 -1269 -1265 -1261 -1259 -1257 -1252 -1251 -1245 -1242 -1254 -1248 -1252 -1258 -1258 -1252 -1238 -1228 -1212 -1207 -1211 -1208 -1211 -1212 -1212 -1199 -1188 -1180 -1161 -1145 -1112 -1099 -1074 -1048 -1034 -1005 -995 -984 -965 -948 -910 -896 -881 -870 -860 -844 -827 -807
-1253 -1279 -1287 -1306 -1326 -1339 -1367 -1382 -1403 -1422 -1434 -1456 -1468 -1486 -1508 -1519 -1540 -1549 -1563 -1565 -1573 -1582 -1586 -1589 -1586 -1592 -1590 -1591 -1586 -1586 -1586 -1588 -1594 -1606 -1607 -1610 -1613 -1614 -1611 -1605 -1595 -1592 -1590 -1596 -1602 -1608 -1609 -1612 -1609 -1607 -1611 -1615 -1615 -1613 -1612 -1605 -1602 -1602 -1603 -1606 -1609 -1610 -1605 -1601 -1595 -1597 -1595 -1598 -1589 -1600 -1614 -1623 -1648 -1656 -1645 -1635 -1623 -1624 -1624 -1626 -1629 -1629 -1630 -1632 -1638 -1631 -1632 -1629 -1631 -1632 -1630 -1625 -1622 -1622 -1620 -1619 -1617 -1616 -1611 -1610 -1609 -1608 -1601 -1596 -1589 -1588 -1568 -1562 -1555 -1550 -1538 -1528 -1524 -1523 -1527 -1529 -1530 -1534 -1538 -1543 -1558 -1560 -1565 -1567 -1574 -1563 -1565 -1562 -1545 -1546 -1537 -1536 -1536 -1536 -1535 -1532 -1525 -1515 -1509 -1505 -1495 -1491 -1487 -1484 -1481 -1480 -1479 -1478 -1476 -1470 -1458 -1451 -1441 -1437 -1432 -1411 -1407 -1397 -1400 -1381 -1370 -1366 -1355 -1350 -1342 -1337 -1329 -1315 -1309 -1297 -1288 -1276 -1266 -1263 -1261 -1257 -1252 -1245 -1243 -1241 -1238 -1230 -1226 -1238 -1234 -1238 -1243 -1243 -1240 -1233 -1227 -1212 -1207 -1209 -1207 -1207 -1210 -1198 -1193 -1176 -1169 -1156 -1142 -1107 -1092 -1062 -1033 -1019 -1000 -993 -967 -948 -937 -902 -886 -871 -863 -856 -842 -822 -801
-1252 -1274 -1281 -1299 -1321 -1335 -1366 -1383 -1407 -1420 -1430 -1452 -1462 -1482 -1499 -1509 -1531 -1543 -1560 -1560 -1569 -1574 -1578 -1587 -1578 -1578 -1581 -1582 -1583 -1582 -1581 -1581 -1586 -1597 -1601 -1607 -1610 -1608 -1602 -1600 -1596 -1592 -1588 -1591 -1595 -1605 -1608 -1609 -1610 -1609 -1609 -1612 -1614 -1612 -1612 -1607 -1602 -1600 -1600 -1606 -1610 -1611 -1605 -1602 -1596 -1597 -1597 -1596 -1591 -1597 -1612 -1623 -1647 -1652 -1645 -1638 -1626 -1625 -1624 -1624 -1626 -1630 -1630 -1632 -1636 -1624 -1631 -1628 -1629 -1630 -1628 -1624 -1625 -1624 -1619 -1617 -1612 -1610 -1605 -1604 -1605 -1610 -1602 -1594 -1586 -1584 -1569 -1562 -1552 -1546 -1530 -1520 -1518 -1517 -1520 -1523 -1523 -1523 -1524 -1529 -1546 -1548 -1555 -1555 -1549 -1543 -1538 -1536 -1511 -1523 -1515 -1514 -1512 -1511 -1511 -1508 -1504 -1497 -1492 -1488 -1481 -1478 -1472 -1466 -1464 -1463 -1462 -1464 -1462 -1452 -1441 -1434 -1424 -1418 -1410 -1394 -1392 -1383 -1383 -1368 -1357 -1353 -1343 -1338 -1330 -1326 -1320 -1308 -1303 -1292 -1284 -1269 -1259 -1254 -1251 -1249 -1244 -1234 -1231 -1229 -1224 -1216 -1216 -1222 -1219 -1224 -1228 -1229 -1226 -1222 -1218 -1209 -1206 -1205 -1205 -1206 -1200 -1193 -1180 -1158 -1150 -1134 -1122 -1096 -1082 -1048 -1015 -1007 -990 -982 -953 -936 -929 -899 -883 -867 -858 -851 -838 -819 -796
