ncols         497
nrows         32
xllcorner     -18130.7316184
yllcorner     1747323.84289
cellsize      59.2252938
NODATA_value  -9999
-5446 -5439 -5432 -5429 -5422 -5418 -5409 -5406 -5401 -5396 -5400 -5417 -5433 -5469 -5504 -5542 -5577 -5611 -5633 -5654 -5672 -5685 -5700 -5706 -5705 -5707 -5710 -5706 -5691 -5690 -5681 -5660 -5629 -5589 -5546 -5502 -5484 -5455 -5429 -5419 -5426 -5441 -5448 -5456 -5463 -5465 -5470 -5476 -5476 -5472 -5478 -5474 -5476 -5481 -5481 -5483 -5486 -5481 -5474 -5474 -5476 -5477 -5476 -5469 -5471 -5472 -5475 -5475 -5470 -5469 -5476 -5476 -5467 -5463 -5463 -5460 -5461 -5461 -5462 -5465 -5463 -5466 -5470 -5476 -5470 -5463 -5453 -5452 -5449 -5449 -5452 -5453 -5453 -5452 -5451 -5452 -5450 -5449 -5447 -5448 -5452 -5453 -5456 -5455 -5452 -5454 -5461 -5461 -5460 -5459 -5455 -5448 -5448 -5448 -5452 -5453 -5445 -5439 -5441 -5438 -5435 -5430 -5431 -5432 -5434 -5433 -5434 -5425 -5415 -5426 -5430 -5424 -5422 -5422 -5420 -5414 -5412 -5414 -5416 -5415 -5414 -5419 -5423 -5445 -5436 -5433 -5432 -5427 -5421 -5424 -5430 -5436 -5440 -5444 -5444 -5438 -5434 -5435 -5439 -5444 -5445 -5439 -5431 -5426 -5425 -5425 -5426 -5424 -5413 -5417 -5426 -5420 -5416 -5414 -5417 -5412 -5414 -5416 -5416 -5413 -5410 -5414 -5402 -5403 -5409 -5413 -5411 -5409 -5409 -5410 -5410 -5416 -5400 -5411 -5405 -5403 -5398 -5390 -5389 -5399 -5404 -5408 -5414 -5420 -5419 -5413 -5407 -5407 -5405 -5407 -5410 -5411 -5409 -5408 -5408 -5408 -5408 -5408 -5418 -5421 -5412 -5405 -5402 -5398 -5401 -5403 -5400 -5396 -5399 -5396 -5392 -5394 -5402 -5400 -5397 -5397 -5401 -5401 -5401 -5402 -5409 -5407 -5391 -5382 -5378 -5369 -5364 -5367 -5376 -5377 -5375 -5378 -5381 -5383 -5384 -5384 -5385 -5388 -5390 -5389 -5391 -5381 -5381 -5377 -5385 -5378 -5382 -5381 -5380 -5368 -5362 -5361 -5361 -5359 -5358 -5358 -5363 -5358 -5345 -5332 -5327 -5329 -5317 -5329 -5349 -5390 -5416 -5470 -5528 -5581 -5628 -5668 -5681 -5689 -5677 -5655 -5609 -5567 -5546 -5503 -5464 -5438 -5422 -5423 -5439 -5447 -5463 -5490 -5503 -5507 -5509 -5510 -5496 -5487 -5468 -5444 -5446 -5452 -5457 -5473 -5494 -5496 -5475 -5464 -5457 -5456 -5462 -5468 -5470 -5470 -5464 -5465 -5466 -5461 -5466 -5464 -5460 -5469 -5468 -5465 -5466 -5472 -5480 -5477 -5471 -5472 -5472 -5471 -5464 -5460 -5463 -5467 -5467 -5467 -5464 -5460 -5463 -5466 -5465 -5465 -5465 -5459 -5458 -5456 -5458 -5458 -5457 -5456 -5448 -5440 -5456 -5456 -5458 -5457 -5454 -5456 -5450 -5446 -5445 -5447 -5446 -5448 -5445 -5446 -5448 -5457 -5462 -5460 -5465 -5476 -5477 -5462 -5439 -5442 -5440 -5445 -5448 -5450 -5455 -5452 -5443 -5439 -5439 -5443 -5440 -5435 -5438 -5439 -5440 -5446 -5447 -5446 -5426 -5434 -5433 -5431 -5429 -5418 -5425 -5430 -5432 -5425 -5417 -5419 -5416 -5414 -5419 -5425 -5427 -5434 -5429 -5432 -5431 -5427 -5422 -5430 -5442 -5435 -5419 -5414 -5409 -5412 -5419 -5421 -5438 -5437 -5433 -5431 -5423 -5424 -5426 -5425 -5424 -5426 -5426 -5425 -5427 -5428 -5426 -5427 -5429 -5429 -5429 -5430 -5428 -5430 -5415 -5420 -5430 -5433 -5430 -5432 -5434 -5428 -5424 -5427 -5437 -5437 -5443 -5440 -5452 -5435 -5451 -5450 -5448 -5435 -5437 -5443 -5444 -5445 -5442 -5442 -5442 -5452 -5456 -5453 -5441
-5447 -5438 -5432 -5425 -5418 -5415 -5410 -5404 -5394 -5389 -5401 -5425 -5443 -5481 -5518 -5556 -5592 -5622 -5650 -5663 -5682 -5697 -5712 -5718 -5719 -5724 -5727 -5721 -5713 -5706 -5695 -5669 -5640 -5605 -5562 -5518 -5498 -5456 -5416 -5409 -5423 -5439 -5446 -5459 -5458 -5467 -5473 -5477 -5477 -5473 -5479 -5473 -5475 -5479 -5479 -5484 -5490 -5489 -5482 -5478 -5479 -5480 -5481 -5476 -5474 -5476 -5473 -5469 -5463 -5465 -5474 -5474 -5466 -5465 -5467 -5466 -5462 -5461 -5462 -5464 -5462 -5460 -5462 -5466 -5459 -5454 -5447 -5446 -5440 -5444 -5448 -5451 -5460 -5459 -5453 -5449 -5450 -5450 -5448 -5449 -5453 -5458 -5461 -5458 -5451 -5452 -5458 -5457 -5452 -5451 -5449 -5448 -5450 -5450 -5450 -5446 -5435 -5431 -5438 -5438 -5434 -5430 -5427 -5426 -5433 -5436 -5433 -5427 -5423 -5429 -5428 -5420 -5416 -5415 -5415 -5412 -5409 -5411 -5417 -5423 -5421 -5422 -5431 -5443 -5439 -5433 -5431 -5429 -5428 -5431 -5434 -5435 -5438 -5442 -5441 -5435 -5427 -5428 -5433 -5444 -5445 -5436 -5428 -5426 -5424 -5423 -5420 -5423 -5412 -5423 -5426 -5422 -5416 -5412 -5416 -5405 -5409 -5416 -5419 -5417 -5420 -5410 -5399 -5395 -5399 -5405 -5406 -5408 -5397 -5409 -5408 -5414 -5397 -5407 -5397 -5394 -5392 -5388 -5387 -5401 -5406 -5409 -5410 -5414 -5418 -5413 -5409 -5412 -5406 -5416 -5416 -5413 -5408 -5406 -5404 -5407 -5415 -5411 -5414 -5416 -5409 -5402 -5400 -5396 -5401 -5404 -5402 -5400 -5403 -5399 -5393 -5393 -5400 -5400 -5397 -5394 -5398 -5401 -5402 -5407 -5412 -5408 -5396 -5383 -5379 -5377 -5372 -5368 -5375 -5377 -5376 -5379 -5376 -5375 -5377 -5380 -5380 -5381 -5386 -5391 -5394 -5380 -5384 -5376 -5385 -5375 -5381 -5380 -5378 -5365 -5359 -5356 -5359 -5361 -5361 -5358 -5364 -5364 -5356 -5346 -5342 -5340 -5327 -5331 -5349 -5389 -5413 -5469 -5525 -5574 -5615 -5652 -5666 -5679 -5668 -5650 -5608 -5563 -5542 -5503 -5473 -5459 -5454 -5459 -5473 -5481 -5499 -5529 -5540 -5549 -5554 -5552 -5526 -5518 -5492 -5467 -5457 -5457 -5460 -5479 -5501 -5503 -5480 -5466 -5454 -5457 -5457 -5469 -5467 -5466 -5461 -5461 -5465 -5458 -5462 -5462 -5457 -5469 -5466 -5467 -5469 -5471 -5476 -5473 -5473 -5476 -5469 -5466 -5462 -5457 -5457 -5466 -5465 -5463 -5457 -5454 -5457 -5465 -5466 -5467 -5467 -5467 -5468 -5464 -5460 -5458 -5458 -5455 -5451 -5444 -5455 -5459 -5461 -5455 -5448 -5446 -5444 -5444 -5445 -5447 -5447 -5447 -5447 -5450 -5454 -5462 -5460 -5461 -5481 -5500 -5496 -5472 -5444 -5457 -5452 -5448 -5448 -5452 -5456 -5451 -5445 -5441 -5442 -5445 -5438 -5433 -5438 -5437 -5436 -5441 -5444 -5440 -5427 -5433 -5431 -5426 -5428 -5422 -5429 -5430 -5433 -5428 -5417 -5417 -5416 -5415 -5426 -5432 -5423 -5426 -5434 -5433 -5422 -5415 -5412 -5423 -5432 -5430 -5422 -5411 -5413 -5408 -5412 -5419 -5425 -5428 -5432 -5433 -5425 -5423 -5422 -5421 -5419 -5418 -5422 -5427 -5425 -5425 -5427 -5432 -5433 -5431 -5429 -5428 -5431 -5428 -5413 -5416 -5430 -5433 -5429 -5434 -5431 -5426 -5421 -5422 -5428 -5429 -5432 -5439 -5446 -5434 -5450 -5448 -5447 -5436 -5434 -5440 -5442 -5444 -5442 -5443 -5443 -5453 -5458 -5454 -5445
-5450 -5443 -5436 -5424 -5419 -5413 -5412 -5404 -5394 -5391 -5408 -5433 -5450 -5489 -5528 -5567 -5604 -5632 -5656 -5672 -5694 -5708 -5722 -5731 -5734 -5739 -5737 -5733 -5726 -5717 -5707 -5679 -5652 -5617 -5576 -5531 -5509 -5462 -5421 -5413 -5425 -5437 -5445 -5454 -5459 -5465 -5471 -5479 -5483 -5472 -5480 -5474 -5471 -5471 -5472 -5480 -5492 -5499 -5492 -5482 -5485 -5489 -5488 -5485 -5480 -5476 -5469 -5463 -5456 -5459 -5464 -5467 -5467 -5468 -5471 -5466 -5457 -5460 -5466 -5462 -5461 -5462 -5470 -5471 -5456 -5450 -5445 -5443 -5436 -5439 -5450 -5455 -5462 -5465 -5462 -5456 -5453 -5454 -5453 -5450 -5452 -5459 -5460 -5458 -5453 -5452 -5456 -5455 -5450 -5450 -5452 -5450 -5443 -5442 -5443 -5440 -5430 -5428 -5431 -5432 -5430 -5429 -5426 -5422 -5427 -5432 -5430 -5429 -5426 -5430 -5425 -5420 -5416 -5415 -5417 -5419 -5416 -5415 -5420 -5427 -5428 -5432 -5437 -5439 -5439 -5438 -5438 -5439 -5435 -5435 -5436 -5436 -5438 -5442 -5441 -5433 -5423 -5426 -5432 -5445 -5449 -5439 -5426 -5423 -5422 -5421 -5419 -5421 -5412 -5420 -5427 -5418 -5415 -5411 -5414 -5398 -5402 -5410 -5413 -5416 -5423 -5404 -5396 -5389 -5387 -5392 -5398 -5408 -5413 -5410 -5402 -5406 -5394 -5401 -5394 -5390 -5387 -5385 -5395 -5402 -5414 -5413 -5410 -5413 -5418 -5414 -5411 -5412 -5408 -5415 -5415 -5413 -5412 -5412 -5409 -5410 -5418 -5412 -5408 -5409 -5407 -5401 -5400 -5402 -5406 -5405 -5401 -5400 -5402 -5404 -5400 -5398 -5400 -5400 -5399 -5397 -5400 -5404 -5405 -5409 -5408 -5403 -5398 -5387 -5383 -5387 -5390 -5382 -5381 -5377 -5377 -5374 -5375 -5374 -5379 -5379 -5377 -5378 -5387 -5392 -5389 -5383 -5382 -5376 -5378 -5372 -5383 -5379 -5376 -5371 -5364 -5357 -5362 -5370 -5369 -5361 -5361 -5366 -5363 -5362 -5359 -5349 -5335 -5333 -5353 -5387 -5408 -5460 -5510 -5556 -5597 -5630 -5644 -5659 -5652 -5638 -5602 -5559 -5539 -5504 -5483 -5480 -5484 -5490 -5501 -5509 -5527 -5559 -5569 -5583 -5586 -5582 -5559 -5548 -5509 -5483 -5459 -5451 -5451 -5468 -5484 -5484 -5466 -5456 -5450 -5459 -5452 -5460 -5460 -5456 -5454 -5456 -5466 -5457 -5465 -5465 -5470 -5469 -5467 -5470 -5469 -5471 -5475 -5468 -5472 -5477 -5470 -5468 -5464 -5460 -5461 -5465 -5466 -5464 -5459 -5455 -5457 -5462 -5467 -5468 -5470 -5478 -5483 -5481 -5469 -5458 -5459 -5453 -5457 -5456 -5456 -5467 -5465 -5454 -5446 -5446 -5446 -5447 -5446 -5447 -5450 -5448 -5448 -5449 -5451 -5453 -5456 -5463 -5482 -5489 -5485 -5468 -5441 -5455 -5452 -5446 -5445 -5453 -5454 -5450 -5445 -5441 -5441 -5440 -5433 -5433 -5439 -5441 -5442 -5447 -5446 -5440 -5430 -5434 -5432 -5424 -5426 -5427 -5431 -5427 -5427 -5421 -5418 -5420 -5419 -5422 -5432 -5436 -5423 -5422 -5436 -5437 -5424 -5414 -5411 -5420 -5422 -5420 -5418 -5409 -5416 -5409 -5410 -5415 -5417 -5419 -5423 -5426 -5428 -5428 -5425 -5422 -5420 -5418 -5421 -5422 -5425 -5425 -5423 -5437 -5436 -5431 -5428 -5428 -5429 -5430 -5423 -5423 -5429 -5430 -5429 -5431 -5428 -5424 -5422 -5422 -5427 -5429 -5431 -5436 -5439 -5431 -5442 -5440 -5443 -5433 -5432 -5440 -5443 -5448 -5444 -5443 -5442 -5445 -5449 -5450 -5445
-5449 -5445 -5437 -5424 -5417 -5415 -5411 -5406 -5399 -5399 -5413 -5439 -5457 -5495 -5536 -5573 -5608 -5638 -5661 -5679 -5704 -5717 -5732 -5742 -5746 -5751 -5744 -5741 -5734 -5726 -5714 -5687 -5662 -5627 -5585 -5536 -5513 -5468 -5436 -5426 -5432 -5436 -5444 -5453 -5458 -5465 -5469 -5481 -5484 -5472 -5478 -5473 -5468 -5468 -5471 -5481 -5496 -5502 -5490 -5479 -5487 -5494 -5496 -5492 -5484 -5480 -5475 -5471 -5463 -5459 -5457 -5461 -5464 -5468 -5473 -5466 -5459 -5461 -5466 -5464 -5462 -5467 -5481 -5481 -5458 -5450 -5450 -5444 -5446 -5445 -5456 -5464 -5461 -5470 -5474 -5468 -5458 -5454 -5454 -5451 -5448 -5449 -5450 -5450 -5452 -5452 -5455 -5452 -5447 -5447 -5449 -5444 -5435 -5435 -5438 -5438 -5434 -5430 -5427 -5429 -5430 -5427 -5429 -5424 -5422 -5426 -5429 -5431 -5431 -5434 -5429 -5426 -5421 -5418 -5420 -5425 -5424 -5420 -5426 -5438 -5437 -5436 -5437 -5443 -5444 -5442 -5442 -5440 -5435 -5435 -5436 -5438 -5440 -5440 -5438 -5434 -5430 -5436 -5440 -5444 -5445 -5439 -5430 -5427 -5426 -5423 -5422 -5419 -5415 -5418 -5418 -5415 -5411 -5408 -5411 -5393 -5395 -5401 -5404 -5407 -5411 -5389 -5391 -5383 -5380 -5384 -5388 -5396 -5402 -5399 -5394 -5394 -5388 -5402 -5397 -5392 -5384 -5384 -5396 -5401 -5417 -5416 -5409 -5413 -5420 -5415 -5412 -5410 -5404 -5408 -5408 -5407 -5412 -5415 -5415 -5412 -5415 -5411 -5406 -5406 -5404 -5401 -5401 -5406 -5409 -5407 -5400 -5395 -5396 -5404 -5403 -5401 -5404 -5408 -5404 -5402 -5401 -5405 -5405 -5405 -5403 -5397 -5399 -5391 -5389 -5395 -5398 -5394 -5387 -5380 -5377 -5367 -5377 -5377 -5381 -5379 -5377 -5378 -5386 -5388 -5386 -5383 -5380 -5374 -5377 -5367 -5378 -5377 -5373 -5374 -5368 -5359 -5365 -5370 -5368 -5360 -5361 -5368 -5367 -5362 -5361 -5351 -5342 -5341 -5358 -5382 -5400 -5441 -5483 -5529 -5570 -5600 -5612 -5627 -5626 -5618 -5587 -5552 -5536 -5512 -5501 -5503 -5509 -5516 -5529 -5539 -5557 -5584 -5596 -5612 -5611 -5605 -5587 -5574 -5528 -5496 -5467 -5455 -5444 -5450 -5457 -5458 -5448 -5445 -5448 -5457 -5451 -5455 -5460 -5453 -5455 -5460 -5469 -5457 -5471 -5471 -5459 -5469 -5470 -5468 -5467 -5470 -5472 -5468 -5469 -5472 -5472 -5472 -5469 -5462 -5461 -5462 -5467 -5466 -5461 -5459 -5457 -5460 -5463 -5465 -5468 -5475 -5482 -5482 -5468 -5459 -5459 -5455 -5459 -5457 -5456 -5466 -5463 -5450 -5447 -5450 -5449 -5446 -5449 -5449 -5453 -5451 -5449 -5446 -5441 -5440 -5454 -5466 -5470 -5469 -5467 -5458 -5439 -5442 -5447 -5445 -5445 -5451 -5449 -5444 -5441 -5437 -5438 -5437 -5434 -5439 -5444 -5445 -5447 -5449 -5442 -5438 -5429 -5438 -5438 -5426 -5428 -5430 -5430 -5425 -5424 -5416 -5415 -5419 -5417 -5414 -5424 -5427 -5423 -5422 -5430 -5434 -5428 -5420 -5418 -5427 -5426 -5422 -5414 -5412 -5412 -5411 -5413 -5414 -5416 -5417 -5420 -5421 -5422 -5426 -5425 -5423 -5421 -5421 -5421 -5423 -5429 -5430 -5424 -5435 -5432 -5425 -5428 -5427 -5427 -5425 -5428 -5428 -5428 -5427 -5428 -5425 -5424 -5423 -5422 -5423 -5427 -5431 -5437 -5441 -5441 -5438 -5441 -5439 -5442 -5435 -5435 -5443 -5447 -5449 -5442 -5440 -5439 -5440 -5443 -5444 -5441
-5447 -5443 -5437 -5428 -5417 -5416 -5407 -5400 -5400 -5406 -5419 -5445 -5463 -5499 -5539 -5576 -5613 -5642 -5665 -5677 -5702 -5721 -5739 -5747 -5750 -5757 -5749 -5747 -5741 -5726 -5715 -5690 -5663 -5632 -5589 -5539 -5515 -5473 -5451 -5441 -5437 -5437 -5444 -5453 -5457 -5465 -5467 -5475 -5477 -5471 -5476 -5472 -5470 -5476 -5481 -5487 -5494 -5493 -5480 -5477 -5491 -5497 -5502 -5495 -5487 -5482 -5480 -5477 -5472 -5468 -5464 -5466 -5468 -5470 -5469 -5459 -5459 -5462 -5460 -5463 -5462 -5462 -5475 -5472 -5449 -5444 -5455 -5455 -5461 -5460 -5467 -5478 -5470 -5478 -5482 -5471 -5457 -5454 -5451 -5450 -5448 -5447 -5449 -5452 -5454 -5447 -5447 -5446 -5441 -5441 -5443 -5437 -5431 -5430 -5435 -5435 -5430 -5428 -5430 -5432 -5434 -5430 -5432 -5430 -5425 -5427 -5434 -5434 -5433 -5435 -5434 -5437 -5432 -5425 -5426 -5432 -5432 -5429 -5434 -5438 -5439 -5440 -5440 -5448 -5454 -5448 -5444 -5439 -5438 -5439 -5438 -5437 -5437 -5435 -5436 -5437 -5433 -5439 -5443 -5441 -5436 -5433 -5429 -5428 -5426 -5422 -5421 -5416 -5416 -5417 -5417 -5414 -5407 -5401 -5406 -5390 -5391 -5395 -5396 -5395 -5391 -5378 -5378 -5374 -5371 -5374 -5376 -5374 -5378 -5380 -5383 -5385 -5379 -5403 -5401 -5394 -5384 -5382 -5391 -5400 -5415 -5416 -5411 -5413 -5416 -5413 -5412 -5411 -5406 -5404 -5402 -5404 -5409 -5412 -5411 -5410 -5411 -5410 -5406 -5406 -5405 -5403 -5400 -5407 -5409 -5409 -5406 -5397 -5393 -5400 -5402 -5402 -5408 -5413 -5412 -5405 -5401 -5397 -5398 -5400 -5399 -5395 -5394 -5389 -5390 -5397 -5402 -5401 -5390 -5379 -5375 -5364 -5375 -5377 -5379 -5380 -5378 -5377 -5380 -5383 -5383 -5380 -5376 -5370 -5374 -5364 -5371 -5376 -5365 -5367 -5362 -5358 -5361 -5361 -5359 -5354 -5357 -5367 -5364 -5350 -5347 -5344 -5346 -5347 -5358 -5376 -5387 -5418 -5454 -5495 -5533 -5559 -5570 -5588 -5594 -5599 -5572 -5545 -5532 -5521 -5521 -5527 -5534 -5541 -5554 -5563 -5582 -5600 -5615 -5629 -5631 -5624 -5606 -5590 -5550 -5507 -5475 -5463 -5445 -5440 -5444 -5445 -5443 -5445 -5450 -5453 -5454 -5463 -5471 -5453 -5466 -5469 -5472 -5458 -5474 -5473 -5457 -5470 -5468 -5466 -5466 -5468 -5468 -5467 -5463 -5462 -5468 -5471 -5467 -5461 -5461 -5456 -5463 -5464 -5461 -5459 -5459 -5457 -5457 -5460 -5465 -5469 -5471 -5470 -5462 -5460 -5459 -5459 -5457 -5449 -5455 -5456 -5456 -5449 -5447 -5452 -5450 -5444 -5451 -5445 -5453 -5453 -5449 -5446 -5441 -5437 -5450 -5455 -5454 -5454 -5454 -5448 -5439 -5434 -5443 -5447 -5450 -5450 -5445 -5441 -5437 -5436 -5436 -5436 -5440 -5446 -5444 -5440 -5441 -5442 -5440 -5440 -5429 -5436 -5438 -5426 -5423 -5433 -5428 -5422 -5422 -5417 -5417 -5422 -5414 -5411 -5412 -5416 -5423 -5426 -5429 -5431 -5428 -5424 -5423 -5432 -5430 -5424 -5414 -5413 -5409 -5411 -5413 -5411 -5411 -5415 -5422 -5422 -5415 -5416 -5420 -5420 -5417 -5418 -5420 -5423 -5430 -5430 -5422 -5427 -5428 -5429 -5430 -5427 -5422 -5424 -5427 -5434 -5431 -5429 -5427 -5425 -5426 -5429 -5427 -5427 -5431 -5437 -5442 -5443 -5442 -5432 -5442 -5440 -5442 -5435 -5432 -5442 -5445 -5446 -5440 -5441 -5441 -5438 -5439 -5442 -5441
-5447 -5441 -5437 -5427 -5416 -5417 -5407 -5399 -5403 -5411 -5423 -5444 -5459 -5494 -5530 -5574 -5621 -5645 -5666 -5666 -5693 -5719 -5741 -5749 -5751 -5756 -5755 -5750 -5744 -5731 -5722 -5698 -5667 -5633 -5590 -5542 -5516 -5474 -5456 -5441 -5433 -5437 -5443 -5452 -5457 -5461 -5464 -5469 -5467 -5470 -5472 -5472 -5471 -5478 -5483 -5488 -5489 -5484 -5470 -5472 -5486 -5491 -5497 -5494 -5488 -5481 -5478 -5478 -5474 -5471 -5468 -5469 -5472 -5474 -5470 -5458 -5457 -5462 -5459 -5462 -5463 -5462 -5467 -5464 -5454 -5452 -5465 -5479 -5481 -5483 -5478 -5493 -5482 -5484 -5481 -5465 -5450 -5449 -5450 -5451 -5450 -5450 -5452 -5454 -5455 -5444 -5441 -5440 -5438 -5407 -5433 -5430 -5428 -5428 -5435 -5437 -5431 -5427 -5431 -5436 -5443 -5441 -5438 -5434 -5429 -5434 -5440 -5437 -5436 -5434 -5435 -5444 -5446 -5437 -5435 -5441 -5440 -5435 -5439 -5439 -5440 -5442 -5440 -5443 -5453 -5450 -5447 -5442 -5446 -5446 -5441 -5435 -5435 -5434 -5436 -5437 -5430 -5433 -5437 -5437 -5430 -5427 -5424 -5422 -5422 -5422 -5421 -5417 -5413 -5414 -5412 -5407 -5400 -5393 -5399 -5385 -5385 -5387 -5387 -5384 -5377 -5371 -5366 -5364 -5361 -5360 -5360 -5358 -5346 -5362 -5369 -5371 -5379 -5390 -5391 -5387 -5381 -5383 -5388 -5398 -5411 -5414 -5411 -5413 -5413 -5410 -5408 -5406 -5407 -5408 -5407 -5406 -5408 -5410 -5410 -5408 -5408 -5410 -5407 -5406 -5407 -5403 -5398 -5401 -5405 -5406 -5407 -5401 -5395 -5399 -5401 -5401 -5404 -5409 -5410 -5402 -5397 -5390 -5397 -5401 -5398 -5394 -5387 -5384 -5386 -5395 -5402 -5401 -5386 -5375 -5372 -5362 -5372 -5377 -5381 -5381 -5378 -5375 -5377 -5375 -5374 -5376 -5371 -5368 -5373 -5371 -5365 -5361 -5362 -5358 -5356 -5357 -5355 -5353 -5350 -5346 -5350 -5360 -5361 -5346 -5341 -5341 -5352 -5346 -5355 -5369 -5377 -5401 -5430 -5460 -5491 -5517 -5527 -5546 -5554 -5564 -5548 -5531 -5522 -5520 -5531 -5545 -5556 -5563 -5577 -5586 -5602 -5617 -5622 -5636 -5639 -5634 -5620 -5601 -5562 -5516 -5481 -5467 -5446 -5440 -5446 -5448 -5455 -5463 -5467 -5462 -5466 -5470 -5473 -5458 -5468 -5468 -5471 -5456 -5469 -5463 -5455 -5469 -5469 -5466 -5464 -5465 -5467 -5468 -5463 -5462 -5465 -5466 -5463 -5459 -5458 -5457 -5462 -5463 -5462 -5463 -5463 -5457 -5457 -5459 -5466 -5467 -5463 -5464 -5458 -5459 -5459 -5456 -5456 -5450 -5455 -5450 -5453 -5449 -5445 -5450 -5452 -5445 -5449 -5443 -5449 -5453 -5449 -5450 -5449 -5443 -5441 -5445 -5446 -5448 -5448 -5443 -5439 -5438 -5443 -5449 -5450 -5447 -5442 -5438 -5435 -5432 -5431 -5431 -5441 -5449 -5444 -5438 -5437 -5440 -5444 -5444 -5429 -5432 -5433 -5425 -5422 -5431 -5425 -5419 -5420 -5420 -5420 -5422 -5418 -5408 -5413 -5415 -5424 -5435 -5438 -5432 -5424 -5420 -5420 -5426 -5423 -5418 -5415 -5411 -5411 -5411 -5411 -5408 -5408 -5413 -5425 -5422 -5410 -5410 -5421 -5423 -5418 -5413 -5418 -5424 -5424 -5423 -5420 -5421 -5421 -5424 -5426 -5425 -5421 -5421 -5428 -5440 -5436 -5434 -5427 -5432 -5434 -5435 -5432 -5432 -5436 -5443 -5445 -5443 -5438 -5431 -5442 -5441 -5441 -5433 -5435 -5440 -5441 -5441 -5438 -5443 -5444 -5438 -5437 -5441 -5443
-5445 -5440 -5436 -5428 -5419 -5417 -5412 -5402 -5401 -5404 -5412 -5431 -5444 -5479 -5518 -5568 -5619 -5644 -5660 -5667 -5694 -5720 -5737 -5747 -5751 -5753 -5754 -5750 -5741 -5729 -5720 -5696 -5665 -5627 -5583 -5533 -5512 -5472 -5450 -5433 -5420 -5430 -5443 -5450 -5463 -5461 -5466 -5469 -5466 -5468 -5470 -5471 -5469 -5469 -5471 -5474 -5476 -5469 -5459 -5464 -5479 -5482 -5487 -5486 -5483 -5478 -5478 -5478 -5474 -5470 -5466 -5466 -5472 -5476 -5475 -5460 -5455 -5460 -5460 -5463 -5463 -5462 -5462 -5462 -5460 -5462 -5472 -5497 -5497 -5502 -5505 -5510 -5500 -5488 -5479 -5468 -5454 -5450 -5451 -5451 -5450 -5450 -5450 -5451 -5451 -5445 -5440 -5437 -5435 -5433 -5425 -5424 -5425 -5426 -5432 -5434 -5430 -5428 -5431 -5437 -5447 -5450 -5445 -5436 -5432 -5437 -5441 -5438 -5436 -5441 -5439 -5445 -5452 -5446 -5444 -5447 -5446 -5435 -5436 -5438 -5439 -5439 -5440 -5440 -5448 -5451 -5448 -5446 -5450 -5446 -5438 -5436 -5436 -5435 -5435 -5434 -5427 -5429 -5431 -5431 -5428 -5426 -5424 -5423 -5423 -5425 -5425 -5417 -5412 -5405 -5408 -5392 -5387 -5382 -5383 -5379 -5376 -5372 -5372 -5371 -5368 -5366 -5361 -5359 -5352 -5346 -5346 -5346 -5336 -5348 -5352 -5362 -5369 -5374 -5376 -5374 -5372 -5382 -5391 -5395 -5411 -5412 -5409 -5407 -5409 -5410 -5405 -5401 -5408 -5413 -5413 -5407 -5406 -5407 -5407 -5405 -5409 -5411 -5409 -5410 -5411 -5404 -5395 -5398 -5402 -5403 -5403 -5404 -5404 -5401 -5401 -5401 -5401 -5403 -5404 -5397 -5398 -5392 -5403 -5406 -5400 -5395 -5382 -5379 -5382 -5390 -5394 -5391 -5377 -5369 -5370 -5368 -5374 -5379 -5382 -5378 -5374 -5377 -5382 -5374 -5368 -5373 -5371 -5371 -5378 -5379 -5368 -5357 -5356 -5352 -5352 -5356 -5354 -5349 -5347 -5345 -5353 -5361 -5367 -5355 -5347 -5339 -5352 -5346 -5355 -5368 -5374 -5389 -5407 -5424 -5450 -5474 -5483 -5499 -5510 -5523 -5520 -5517 -5516 -5521 -5539 -5561 -5573 -5581 -5595 -5603 -5620 -5631 -5627 -5636 -5640 -5636 -5622 -5604 -5566 -5526 -5487 -5470 -5444 -5440 -5446 -5453 -5471 -5482 -5487 -5479 -5481 -5474 -5470 -5465 -5461 -5468 -5474 -5456 -5459 -5451 -5455 -5468 -5470 -5465 -5456 -5455 -5459 -5464 -5466 -5466 -5465 -5467 -5464 -5460 -5458 -5463 -5464 -5463 -5460 -5460 -5461 -5460 -5461 -5461 -5463 -5464 -5462 -5464 -5461 -5458 -5459 -5455 -5456 -5455 -5454 -5450 -5455 -5449 -5439 -5441 -5446 -5444 -5443 -5442 -5445 -5448 -5446 -5449 -5450 -5442 -5432 -5441 -5447 -5441 -5440 -5444 -5438 -5450 -5450 -5452 -5449 -5443 -5439 -5434 -5437 -5432 -5428 -5429 -5441 -5445 -5441 -5438 -5438 -5438 -5444 -5444 -5428 -5432 -5431 -5425 -5421 -5431 -5426 -5421 -5422 -5424 -5420 -5419 -5418 -5406 -5414 -5417 -5432 -5457 -5449 -5434 -5422 -5418 -5417 -5420 -5420 -5419 -5418 -5412 -5408 -5410 -5411 -5408 -5412 -5415 -5420 -5415 -5404 -5407 -5422 -5425 -5417 -5405 -5413 -5426 -5421 -5418 -5416 -5418 -5417 -5420 -5422 -5422 -5420 -5422 -5433 -5440 -5434 -5431 -5425 -5433 -5434 -5432 -5430 -5430 -5429 -5436 -5442 -5439 -5433 -5430 -5441 -5442 -5443 -5432 -5430 -5443 -5441 -5435 -5434 -5442 -5446 -5444 -5442 -5443 -5443
-5446 -5441 -5438 -5436 -5431 -5415 -5414 -5409 -5403 -5398 -5402 -5420 -5432 -5460 -5498 -5549 -5599 -5628 -5649 -5665 -5692 -5714 -5727 -5737 -5741 -5741 -5748 -5746 -5732 -5719 -5708 -5679 -5647 -5613 -5570 -5516 -5495 -5461 -5437 -5421 -5411 -5423 -5444 -5454 -5459 -5467 -5472 -5471 -5468 -5466 -5470 -5472 -5470 -5468 -5467 -5467 -5463 -5461 -5459 -5464 -5474 -5476 -5478 -5474 -5472 -5470 -5474 -5476 -5474 -5471 -5465 -5462 -5470 -5472 -5469 -5461 -5458 -5461 -5462 -5460 -5462 -5460 -5455 -5459 -5459 -5461 -5473 -5500 -5507 -5516 -5515 -5517 -5510 -5488 -5476 -5473 -5462 -5458 -5456 -5454 -5454 -5455 -5453 -5452 -5450 -5443 -5438 -5431 -5431 -5430 -5427 -5426 -5426 -5427 -5429 -5430 -5427 -5426 -5429 -5431 -5438 -5438 -5440 -5437 -5429 -5434 -5442 -5438 -5438 -5454 -5446 -5443 -5445 -5442 -5440 -5442 -5447 -5442 -5435 -5439 -5439 -5446 -5441 -5445 -5448 -5451 -5449 -5448 -5445 -5439 -5436 -5439 -5439 -5435 -5436 -5435 -5427 -5427 -5427 -5427 -5433 -5437 -5433 -5428 -5424 -5422 -5426 -5416 -5409 -5396 -5397 -5382 -5377 -5374 -5374 -5372 -5368 -5361 -5360 -5361 -5360 -5366 -5362 -5360 -5350 -5340 -5334 -5337 -5336 -5335 -5338 -5353 -5362 -5367 -5368 -5367 -5369 -5380 -5395 -5397 -5404 -5406 -5407 -5403 -5406 -5410 -5407 -5405 -5407 -5412 -5411 -5405 -5401 -5401 -5399 -5401 -5409 -5409 -5406 -5409 -5412 -5406 -5401 -5402 -5408 -5408 -5403 -5407 -5410 -5402 -5403 -5405 -5404 -5403 -5402 -5397 -5397 -5397 -5400 -5401 -5398 -5394 -5376 -5371 -5374 -5381 -5382 -5380 -5370 -5362 -5365 -5371 -5379 -5375 -5379 -5376 -5374 -5379 -5386 -5379 -5373 -5371 -5369 -5369 -5389 -5386 -5378 -5358 -5353 -5349 -5348 -5351 -5351 -5346 -5343 -5342 -5352 -5359 -5362 -5353 -5344 -5333 -5342 -5343 -5354 -5363 -5367 -5376 -5386 -5395 -5412 -5433 -5440 -5453 -5466 -5483 -5496 -5511 -5518 -5533 -5555 -5579 -5589 -5597 -5609 -5616 -5631 -5640 -5628 -5630 -5632 -5630 -5614 -5603 -5574 -5535 -5492 -5475 -5447 -5443 -5447 -5456 -5474 -5481 -5487 -5489 -5488 -5481 -5476 -5473 -5469 -5477 -5479 -5454 -5453 -5448 -5456 -5466 -5470 -5464 -5453 -5450 -5452 -5459 -5467 -5464 -5461 -5461 -5462 -5459 -5458 -5463 -5460 -5458 -5455 -5453 -5456 -5461 -5466 -5464 -5458 -5458 -5462 -5465 -5465 -5463 -5458 -5454 -5459 -5461 -5455 -5453 -5456 -5449 -5441 -5446 -5449 -5441 -5437 -5442 -5439 -5439 -5442 -5445 -5446 -5438 -5429 -5442 -5441 -5431 -5431 -5442 -5438 -5453 -5455 -5455 -5450 -5446 -5439 -5430 -5436 -5434 -5431 -5434 -5441 -5439 -5436 -5438 -5439 -5440 -5442 -5439 -5426 -5432 -5431 -5424 -5422 -5427 -5426 -5425 -5425 -5425 -5421 -5415 -5415 -5407 -5412 -5414 -5437 -5457 -5449 -5434 -5422 -5421 -5420 -5422 -5424 -5424 -5419 -5410 -5407 -5412 -5416 -5412 -5417 -5416 -5410 -5405 -5402 -5409 -5420 -5421 -5414 -5402 -5411 -5426 -5421 -5417 -5416 -5415 -5416 -5418 -5421 -5421 -5424 -5423 -5437 -5433 -5429 -5429 -5424 -5433 -5432 -5426 -5425 -5424 -5422 -5430 -5437 -5436 -5433 -5430 -5444 -5443 -5443 -5431 -5431 -5451 -5445 -5434 -5431 -5435 -5443 -5446 -5446 -5446 -5443
-5449 -5445 -5440 -5437 -5434 -5416 -5414 -5417 -5405 -5396 -5400 -5416 -5424 -5444 -5480 -5528 -5576 -5611 -5633 -5658 -5681 -5699 -5714 -5726 -5729 -5730 -5735 -5721 -5717 -5700 -5690 -5662 -5633 -5601 -5552 -5499 -5481 -5448 -5427 -5416 -5419 -5433 -5445 -5455 -5459 -5467 -5471 -5470 -5467 -5465 -5469 -5473 -5471 -5468 -5470 -5471 -5463 -5460 -5467 -5472 -5473 -5473 -5476 -5469 -5470 -5469 -5471 -5473 -5473 -5473 -5466 -5463 -5471 -5470 -5463 -5464 -5466 -5465 -5462 -5458 -5459 -5459 -5448 -5451 -5453 -5457 -5473 -5500 -5509 -5518 -5520 -5518 -5502 -5479 -5467 -5462 -5458 -5457 -5457 -5455 -5454 -5456 -5453 -5452 -5446 -5440 -5430 -5423 -5425 -5426 -5430 -5436 -5438 -5440 -5445 -5445 -5437 -5426 -5426 -5426 -5427 -5428 -5429 -5437 -5432 -5436 -5444 -5440 -5443 -5461 -5452 -5445 -5441 -5438 -5435 -5435 -5446 -5450 -5439 -5439 -5440 -5439 -5444 -5440 -5440 -5447 -5451 -5453 -5444 -5437 -5440 -5442 -5439 -5435 -5438 -5440 -5434 -5432 -5430 -5430 -5439 -5440 -5433 -5425 -5419 -5414 -5420 -5410 -5402 -5391 -5388 -5381 -5374 -5370 -5372 -5365 -5363 -5361 -5367 -5369 -5367 -5370 -5375 -5373 -5364 -5349 -5339 -5339 -5334 -5333 -5328 -5341 -5355 -5362 -5363 -5364 -5372 -5380 -5393 -5393 -5392 -5398 -5406 -5404 -5403 -5408 -5411 -5410 -5407 -5410 -5409 -5405 -5404 -5402 -5399 -5400 -5405 -5406 -5405 -5406 -5407 -5406 -5400 -5408 -5411 -5413 -5409 -5409 -5408 -5401 -5405 -5408 -5408 -5408 -5407 -5399 -5396 -5397 -5397 -5397 -5394 -5389 -5372 -5364 -5363 -5369 -5373 -5372 -5367 -5361 -5363 -5372 -5375 -5376 -5379 -5376 -5376 -5378 -5381 -5378 -5376 -5367 -5364 -5361 -5383 -5384 -5380 -5359 -5354 -5346 -5347 -5345 -5343 -5337 -5334 -5337 -5346 -5349 -5348 -5343 -5339 -5331 -5335 -5341 -5350 -5357 -5362 -5369 -5372 -5376 -5385 -5398 -5403 -5414 -5429 -5450 -5476 -5504 -5517 -5538 -5562 -5585 -5598 -5611 -5622 -5625 -5634 -5638 -5624 -5620 -5618 -5617 -5604 -5594 -5575 -5539 -5498 -5481 -5456 -5449 -5451 -5459 -5469 -5473 -5486 -5497 -5491 -5485 -5478 -5472 -5468 -5480 -5476 -5454 -5458 -5458 -5459 -5462 -5468 -5467 -5459 -5456 -5454 -5461 -5465 -5460 -5454 -5453 -5455 -5452 -5453 -5456 -5456 -5455 -5452 -5450 -5454 -5462 -5467 -5465 -5456 -5454 -5456 -5458 -5460 -5458 -5456 -5454 -5461 -5463 -5454 -5450 -5452 -5446 -5445 -5458 -5456 -5440 -5433 -5441 -5435 -5434 -5441 -5443 -5441 -5435 -5433 -5442 -5437 -5429 -5431 -5440 -5436 -5446 -5450 -5448 -5446 -5446 -5439 -5428 -5432 -5438 -5438 -5437 -5438 -5439 -5437 -5439 -5442 -5444 -5439 -5433 -5425 -5433 -5430 -5423 -5420 -5418 -5420 -5422 -5423 -5427 -5422 -5414 -5416 -5409 -5409 -5408 -5423 -5432 -5433 -5429 -5420 -5418 -5417 -5423 -5425 -5421 -5414 -5411 -5410 -5415 -5417 -5420 -5418 -5416 -5406 -5400 -5407 -5417 -5423 -5423 -5419 -5415 -5419 -5417 -5417 -5412 -5415 -5416 -5419 -5421 -5424 -5425 -5430 -5423 -5435 -5429 -5429 -5431 -5423 -5432 -5427 -5420 -5421 -5422 -5425 -5431 -5436 -5436 -5435 -5429 -5444 -5444 -5440 -5433 -5430 -5451 -5446 -5438 -5432 -5428 -5430 -5436 -5439 -5443 -5440
-5452 -5453 -5449 -5437 -5429 -5417 -5414 -5424 -5409 -5395 -5393 -5400 -5408 -5431 -5466 -5510 -5557 -5598 -5618 -5645 -5665 -5681 -5696 -5705 -5709 -5717 -5716 -5703 -5698 -5684 -5675 -5651 -5622 -5584 -5528 -5485 -5470 -5443 -5429 -5423 -5430 -5440 -5448 -5456 -5462 -5468 -5469 -5471 -5471 -5470 -5469 -5468 -5467 -5467 -5470 -5477 -5471 -5466 -5471 -5478 -5475 -5473 -5476 -5468 -5470 -5470 -5470 -5468 -5467 -5470 -5471 -5472 -5476 -5472 -5464 -5466 -5468 -5464 -5456 -5459 -5459 -5456 -5448 -5448 -5452 -5457 -5468 -5486 -5497 -5508 -5512 -5507 -5490 -5472 -5460 -5454 -5455 -5457 -5456 -5453 -5452 -5452 -5448 -5445 -5438 -5440 -5426 -5424 -5426 -5429 -5443 -5461 -5469 -5471 -5474 -5472 -5459 -5444 -5436 -5426 -5420 -5417 -5420 -5435 -5436 -5436 -5441 -5440 -5442 -5454 -5450 -5449 -5448 -5442 -5438 -5435 -5439 -5441 -5436 -5437 -5438 -5436 -5440 -5428 -5430 -5440 -5449 -5457 -5447 -5438 -5437 -5436 -5435 -5434 -5435 -5440 -5439 -5435 -5433 -5432 -5434 -5431 -5425 -5420 -5415 -5412 -5416 -5411 -5397 -5391 -5389 -5382 -5373 -5368 -5369 -5365 -5367 -5377 -5392 -5398 -5396 -5393 -5404 -5404 -5394 -5379 -5365 -5358 -5351 -5343 -5330 -5336 -5350 -5356 -5360 -5365 -5372 -5379 -5387 -5388 -5388 -5394 -5406 -5404 -5402 -5407 -5409 -5409 -5405 -5409 -5411 -5409 -5407 -5407 -5403 -5402 -5400 -5404 -5408 -5407 -5403 -5406 -5399 -5412 -5409 -5411 -5414 -5409 -5404 -5400 -5404 -5407 -5408 -5408 -5407 -5399 -5395 -5395 -5401 -5400 -5390 -5380 -5374 -5365 -5363 -5367 -5368 -5365 -5365 -5367 -5369 -5374 -5375 -5378 -5380 -5377 -5375 -5377 -5375 -5372 -5369 -5363 -5362 -5360 -5368 -5372 -5377 -5359 -5354 -5345 -5346 -5341 -5336 -5330 -5328 -5335 -5343 -5346 -5349 -5346 -5341 -5335 -5335 -5346 -5353 -5365 -5371 -5374 -5369 -5368 -5370 -5375 -5378 -5387 -5403 -5423 -5459 -5490 -5504 -5530 -5558 -5583 -5602 -5618 -5621 -5621 -5623 -5624 -5612 -5606 -5601 -5600 -5591 -5585 -5561 -5530 -5498 -5481 -5458 -5450 -5453 -5458 -5462 -5467 -5485 -5499 -5486 -5481 -5470 -5465 -5459 -5472 -5465 -5454 -5468 -5471 -5455 -5455 -5459 -5465 -5462 -5460 -5458 -5458 -5460 -5457 -5454 -5453 -5451 -5445 -5447 -5452 -5455 -5455 -5455 -5452 -5453 -5455 -5458 -5457 -5453 -5449 -5448 -5448 -5450 -5456 -5455 -5456 -5457 -5456 -5452 -5446 -5446 -5443 -5447 -5456 -5451 -5440 -5433 -5440 -5437 -5436 -5439 -5439 -5439 -5438 -5435 -5440 -5440 -5435 -5436 -5441 -5436 -5442 -5441 -5440 -5442 -5446 -5442 -5432 -5437 -5445 -5445 -5436 -5432 -5436 -5438 -5441 -5445 -5447 -5437 -5431 -5424 -5433 -5431 -5422 -5421 -5415 -5417 -5418 -5419 -5423 -5420 -5415 -5415 -5409 -5414 -5414 -5407 -5411 -5419 -5423 -5420 -5419 -5417 -5421 -5423 -5417 -5414 -5414 -5416 -5416 -5412 -5411 -5418 -5418 -5411 -5400 -5404 -5414 -5419 -5420 -5421 -5422 -5423 -5421 -5412 -5406 -5417 -5417 -5419 -5423 -5425 -5424 -5425 -5423 -5427 -5424 -5426 -5427 -5423 -5425 -5423 -5418 -5417 -5421 -5433 -5436 -5434 -5434 -5434 -5429 -5441 -5442 -5439 -5430 -5429 -5442 -5439 -5435 -5432 -5424 -5422 -5429 -5433 -5438 -5433
-5453 -5456 -5452 -5439 -5427 -5421 -5418 -5430 -5415 -5398 -5390 -5391 -5397 -5419 -5450 -5488 -5531 -5570 -5592 -5618 -5639 -5658 -5672 -5680 -5685 -5694 -5695 -5684 -5668 -5658 -5648 -5625 -5596 -5552 -5500 -5468 -5454 -5437 -5435 -5433 -5435 -5442 -5453 -5460 -5465 -5470 -5473 -5474 -5473 -5468 -5468 -5467 -5469 -5468 -5471 -5479 -5479 -5475 -5474 -5480 -5475 -5471 -5475 -5470 -5468 -5468 -5468 -5466 -5465 -5471 -5474 -5473 -5471 -5469 -5472 -5473 -5470 -5467 -5459 -5459 -5456 -5455 -5447 -5446 -5447 -5450 -5461 -5476 -5477 -5486 -5487 -5484 -5477 -5469 -5460 -5452 -5453 -5456 -5456 -5455 -5454 -5450 -5441 -5435 -5441 -5438 -5420 -5422 -5427 -5435 -5465 -5496 -5511 -5511 -5506 -5502 -5490 -5477 -5461 -5440 -5423 -5412 -5413 -5432 -5438 -5437 -5437 -5439 -5440 -5444 -5444 -5448 -5451 -5448 -5442 -5434 -5432 -5432 -5434 -5438 -5438 -5437 -5436 -5425 -5426 -5436 -5442 -5450 -5445 -5434 -5427 -5426 -5428 -5433 -5433 -5434 -5433 -5428 -5428 -5431 -5432 -5426 -5421 -5418 -5416 -5415 -5414 -5409 -5395 -5390 -5388 -5377 -5367 -5369 -5369 -5378 -5383 -5401 -5421 -5435 -5441 -5448 -5449 -5448 -5440 -5425 -5408 -5391 -5374 -5363 -5345 -5341 -5343 -5346 -5358 -5366 -5375 -5375 -5379 -5388 -5389 -5395 -5404 -5407 -5406 -5406 -5403 -5401 -5404 -5405 -5415 -5414 -5408 -5407 -5406 -5404 -5400 -5402 -5406 -5404 -5397 -5401 -5401 -5413 -5411 -5412 -5415 -5409 -5405 -5403 -5402 -5401 -5402 -5401 -5402 -5399 -5395 -5394 -5402 -5402 -5392 -5378 -5381 -5374 -5372 -5371 -5368 -5364 -5369 -5373 -5373 -5373 -5373 -5375 -5377 -5374 -5371 -5369 -5370 -5365 -5361 -5358 -5358 -5356 -5358 -5362 -5368 -5357 -5352 -5344 -5343 -5339 -5334 -5332 -5334 -5338 -5340 -5346 -5352 -5352 -5347 -5342 -5341 -5350 -5358 -5372 -5378 -5380 -5371 -5368 -5369 -5359 -5356 -5362 -5386 -5410 -5443 -5472 -5486 -5517 -5549 -5576 -5595 -5605 -5606 -5604 -5605 -5600 -5592 -5587 -5581 -5578 -5574 -5559 -5533 -5506 -5478 -5466 -5447 -5442 -5447 -5449 -5451 -5457 -5472 -5481 -5465 -5467 -5459 -5456 -5455 -5461 -5454 -5455 -5461 -5463 -5458 -5452 -5455 -5462 -5461 -5461 -5459 -5458 -5460 -5461 -5459 -5457 -5451 -5445 -5445 -5453 -5454 -5454 -5456 -5453 -5449 -5446 -5449 -5449 -5446 -5445 -5445 -5443 -5448 -5455 -5454 -5459 -5452 -5451 -5450 -5452 -5449 -5443 -5442 -5445 -5440 -5445 -5429 -5440 -5439 -5437 -5439 -5440 -5441 -5440 -5435 -5438 -5445 -5442 -5440 -5439 -5436 -5440 -5437 -5437 -5442 -5447 -5442 -5435 -5438 -5445 -5443 -5435 -5431 -5432 -5435 -5442 -5444 -5444 -5437 -5432 -5425 -5427 -5427 -5426 -5422 -5420 -5419 -5417 -5417 -5416 -5413 -5411 -5413 -5409 -5423 -5425 -5406 -5410 -5419 -5420 -5420 -5421 -5422 -5421 -5421 -5419 -5417 -5413 -5416 -5412 -5409 -5412 -5416 -5418 -5415 -5403 -5399 -5406 -5410 -5410 -5411 -5417 -5420 -5414 -5405 -5403 -5415 -5414 -5414 -5418 -5419 -5416 -5414 -5422 -5419 -5418 -5421 -5423 -5421 -5419 -5420 -5420 -5418 -5421 -5436 -5436 -5432 -5431 -5432 -5430 -5436 -5439 -5442 -5429 -5432 -5437 -5433 -5429 -5430 -5426 -5424 -5431 -5433 -5432 -5428
-5453 -5451 -5449 -5439 -5428 -5425 -5424 -5430 -5413 -5394 -5389 -5394 -5399 -5405 -5423 -5461 -5503 -5537 -5558 -5585 -5608 -5629 -5643 -5655 -5662 -5669 -5665 -5656 -5637 -5626 -5613 -5592 -5562 -5515 -5473 -5444 -5433 -5427 -5429 -5427 -5431 -5444 -5458 -5465 -5472 -5472 -5479 -5480 -5478 -5467 -5467 -5470 -5472 -5467 -5469 -5479 -5482 -5475 -5471 -5481 -5480 -5478 -5480 -5470 -5468 -5461 -5464 -5467 -5470 -5472 -5471 -5470 -5469 -5470 -5479 -5476 -5468 -5467 -5463 -5457 -5455 -5454 -5450 -5450 -5450 -5452 -5463 -5470 -5462 -5460 -5454 -5457 -5462 -5459 -5451 -5446 -5449 -5452 -5455 -5456 -5456 -5452 -5445 -5441 -5438 -5436 -5416 -5421 -5429 -5439 -5478 -5522 -5549 -5549 -5539 -5534 -5525 -5513 -5495 -5467 -5439 -5415 -5412 -5426 -5435 -5438 -5437 -5437 -5439 -5446 -5447 -5447 -5449 -5445 -5439 -5432 -5435 -5439 -5442 -5440 -5439 -5437 -5436 -5434 -5430 -5435 -5437 -5438 -5436 -5430 -5429 -5427 -5427 -5431 -5431 -5430 -5427 -5425 -5425 -5432 -5433 -5426 -5417 -5412 -5411 -5410 -5408 -5406 -5393 -5388 -5385 -5372 -5361 -5372 -5379 -5400 -5408 -5431 -5458 -5480 -5492 -5507 -5495 -5494 -5492 -5477 -5455 -5431 -5404 -5392 -5370 -5350 -5338 -5339 -5354 -5362 -5376 -5372 -5382 -5388 -5394 -5396 -5402 -5412 -5413 -5407 -5400 -5399 -5403 -5404 -5414 -5419 -5411 -5408 -5405 -5400 -5398 -5400 -5401 -5398 -5393 -5397 -5404 -5409 -5411 -5411 -5409 -5408 -5411 -5408 -5398 -5396 -5399 -5400 -5399 -5399 -5395 -5391 -5398 -5400 -5392 -5376 -5380 -5373 -5370 -5371 -5371 -5370 -5371 -5371 -5372 -5373 -5373 -5373 -5370 -5367 -5364 -5366 -5365 -5357 -5355 -5354 -5353 -5349 -5352 -5354 -5360 -5352 -5346 -5339 -5340 -5338 -5337 -5341 -5345 -5348 -5344 -5347 -5354 -5355 -5352 -5345 -5347 -5350 -5367 -5377 -5382 -5382 -5374 -5372 -5373 -5355 -5345 -5348 -5375 -5398 -5427 -5454 -5469 -5501 -5532 -5558 -5574 -5579 -5583 -5583 -5584 -5584 -5569 -5564 -5558 -5554 -5548 -5528 -5501 -5476 -5455 -5448 -5434 -5428 -5435 -5439 -5439 -5445 -5457 -5459 -5443 -5451 -5448 -5451 -5451 -5449 -5446 -5455 -5449 -5448 -5451 -5457 -5460 -5458 -5453 -5453 -5458 -5455 -5464 -5461 -5459 -5457 -5453 -5451 -5444 -5456 -5454 -5452 -5452 -5451 -5444 -5442 -5447 -5448 -5443 -5447 -5451 -5447 -5450 -5454 -5455 -5456 -5451 -5450 -5449 -5458 -5454 -5441 -5432 -5437 -5438 -5451 -5430 -5440 -5435 -5439 -5446 -5447 -5443 -5439 -5437 -5442 -5449 -5445 -5440 -5434 -5436 -5437 -5435 -5440 -5445 -5445 -5437 -5432 -5436 -5438 -5436 -5427 -5426 -5426 -5430 -5437 -5438 -5438 -5435 -5430 -5424 -5423 -5424 -5422 -5420 -5423 -5418 -5417 -5417 -5414 -5411 -5411 -5415 -5408 -5420 -5423 -5412 -5413 -5422 -5420 -5416 -5420 -5427 -5422 -5422 -5423 -5419 -5413 -5411 -5407 -5404 -5408 -5413 -5415 -5415 -5408 -5402 -5403 -5403 -5403 -5403 -5411 -5415 -5410 -5402 -5403 -5412 -5413 -5410 -5410 -5409 -5409 -5410 -5419 -5413 -5415 -5415 -5416 -5420 -5414 -5411 -5416 -5421 -5424 -5431 -5429 -5428 -5427 -5429 -5430 -5436 -5441 -5445 -5431 -5437 -5433 -5431 -5429 -5430 -5428 -5430 -5432 -5432 -5430 -5427
-5450 -5446 -5443 -5438 -5431 -5427 -5426 -5430 -5414 -5394 -5387 -5395 -5400 -5403 -5410 -5433 -5469 -5506 -5523 -5552 -5575 -5596 -5610 -5621 -5628 -5635 -5622 -5624 -5607 -5590 -5581 -5558 -5524 -5490 -5451 -5425 -5421 -5423 -5425 -5425 -5433 -5447 -5460 -5472 -5475 -5477 -5484 -5483 -5481 -5469 -5470 -5468 -5470 -5470 -5472 -5481 -5482 -5474 -5472 -5479 -5481 -5482 -5484 -5471 -5466 -5465 -5468 -5471 -5473 -5470 -5469 -5470 -5469 -5468 -5470 -5463 -5462 -5465 -5462 -5458 -5456 -5454 -5454 -5455 -5455 -5457 -5462 -5463 -5451 -5447 -5440 -5443 -5457 -5455 -5447 -5444 -5449 -5452 -5456 -5456 -5456 -5453 -5452 -5450 -5439 -5431 -5429 -5429 -5433 -5443 -5483 -5532 -5567 -5575 -5566 -5560 -5553 -5546 -5528 -5495 -5458 -5419 -5415 -5422 -5427 -5432 -5431 -5436 -5440 -5454 -5456 -5453 -5449 -5441 -5436 -5439 -5447 -5448 -5447 -5439 -5439 -5435 -5438 -5442 -5439 -5439 -5438 -5433 -5429 -5430 -5433 -5428 -5425 -5423 -5424 -5426 -5427 -5428 -5427 -5429 -5427 -5421 -5416 -5407 -5404 -5401 -5400 -5409 -5390 -5386 -5386 -5375 -5368 -5382 -5398 -5429 -5441 -5470 -5505 -5531 -5542 -5551 -5536 -5535 -5536 -5525 -5497 -5469 -5441 -5428 -5399 -5366 -5345 -5342 -5347 -5352 -5365 -5370 -5384 -5391 -5398 -5397 -5400 -5409 -5413 -5408 -5401 -5400 -5402 -5405 -5412 -5420 -5416 -5412 -5402 -5392 -5392 -5400 -5399 -5396 -5392 -5393 -5398 -5407 -5410 -5409 -5405 -5407 -5414 -5412 -5403 -5400 -5401 -5402 -5399 -5400 -5394 -5391 -5395 -5395 -5390 -5378 -5372 -5365 -5362 -5366 -5371 -5371 -5364 -5366 -5369 -5373 -5374 -5371 -5368 -5366 -5366 -5367 -5363 -5352 -5353 -5350 -5351 -5349 -5347 -5350 -5358 -5349 -5343 -5337 -5341 -5344 -5334 -5342 -5347 -5352 -5350 -5351 -5355 -5353 -5349 -5342 -5351 -5353 -5372 -5378 -5381 -5385 -5378 -5377 -5373 -5358 -5350 -5353 -5375 -5387 -5414 -5441 -5455 -5482 -5508 -5531 -5545 -5551 -5556 -5557 -5558 -5555 -5542 -5536 -5529 -5526 -5510 -5477 -5471 -5451 -5439 -5435 -5429 -5425 -5432 -5436 -5431 -5436 -5452 -5448 -5435 -5439 -5439 -5445 -5445 -5443 -5444 -5453 -5452 -5450 -5451 -5459 -5463 -5457 -5451 -5452 -5457 -5455 -5464 -5460 -5455 -5453 -5452 -5451 -5445 -5454 -5453 -5451 -5450 -5447 -5439 -5441 -5452 -5455 -5454 -5454 -5456 -5451 -5452 -5453 -5454 -5456 -5452 -5450 -5447 -5451 -5449 -5438 -5431 -5436 -5439 -5450 -5438 -5439 -5432 -5440 -5449 -5450 -5446 -5441 -5442 -5444 -5447 -5445 -5442 -5438 -5435 -5435 -5436 -5443 -5446 -5443 -5432 -5429 -5432 -5434 -5431 -5424 -5423 -5425 -5427 -5431 -5433 -5434 -5432 -5430 -5425 -5430 -5430 -5420 -5426 -5421 -5418 -5417 -5416 -5417 -5417 -5417 -5418 -5410 -5419 -5419 -5414 -5412 -5422 -5418 -5414 -5417 -5424 -5419 -5418 -5422 -5418 -5413 -5409 -5404 -5403 -5406 -5407 -5408 -5412 -5412 -5407 -5401 -5403 -5405 -5407 -5409 -5411 -5408 -5405 -5405 -5407 -5410 -5408 -5403 -5403 -5406 -5418 -5417 -5409 -5411 -5411 -5412 -5418 -5410 -5403 -5407 -5418 -5423 -5429 -5426 -5426 -5424 -5428 -5432 -5434 -5439 -5441 -5437 -5431 -5428 -5429 -5431 -5428 -5428 -5432 -5431 -5429 -5429 -5429
-5447 -5444 -5441 -5435 -5439 -5431 -5428 -5432 -5421 -5406 -5398 -5401 -5403 -5405 -5409 -5417 -5441 -5471 -5491 -5512 -5537 -5558 -5574 -5586 -5591 -5591 -5584 -5586 -5569 -5554 -5543 -5515 -5494 -5468 -5436 -5419 -5418 -5423 -5429 -5434 -5443 -5456 -5463 -5468 -5472 -5480 -5480 -5476 -5475 -5476 -5479 -5471 -5471 -5474 -5476 -5481 -5481 -5478 -5477 -5473 -5472 -5475 -5480 -5472 -5461 -5465 -5470 -5470 -5472 -5472 -5472 -5469 -5463 -5463 -5458 -5452 -5461 -5468 -5463 -5456 -5454 -5455 -5454 -5453 -5452 -5454 -5459 -5458 -5452 -5444 -5438 -5440 -5455 -5455 -5453 -5449 -5448 -5449 -5455 -5460 -5459 -5452 -5448 -5446 -5437 -5436 -5437 -5434 -5436 -5446 -5487 -5531 -5562 -5576 -5577 -5574 -5572 -5566 -5550 -5518 -5476 -5430 -5420 -5426 -5425 -5425 -5425 -5434 -5435 -5458 -5460 -5454 -5448 -5442 -5441 -5447 -5449 -5443 -5438 -5431 -5432 -5435 -5435 -5440 -5440 -5441 -5441 -5434 -5428 -5429 -5434 -5428 -5423 -5419 -5421 -5423 -5428 -5432 -5430 -5424 -5416 -5411 -5411 -5405 -5402 -5396 -5392 -5391 -5388 -5383 -5381 -5378 -5384 -5405 -5429 -5465 -5479 -5513 -5548 -5568 -5580 -5586 -5573 -5572 -5573 -5563 -5539 -5513 -5483 -5467 -5429 -5391 -5363 -5347 -5343 -5346 -5357 -5368 -5381 -5384 -5402 -5401 -5401 -5404 -5410 -5411 -5406 -5403 -5403 -5406 -5408 -5416 -5419 -5417 -5407 -5393 -5393 -5398 -5397 -5394 -5391 -5393 -5398 -5409 -5416 -5413 -5404 -5407 -5413 -5410 -5407 -5406 -5404 -5400 -5399 -5401 -5397 -5393 -5395 -5392 -5386 -5383 -5366 -5360 -5359 -5364 -5369 -5367 -5362 -5364 -5367 -5369 -5371 -5366 -5363 -5365 -5367 -5366 -5361 -5354 -5353 -5348 -5347 -5351 -5344 -5343 -5348 -5341 -5339 -5339 -5345 -5351 -5333 -5340 -5342 -5344 -5342 -5346 -5348 -5345 -5344 -5343 -5353 -5352 -5367 -5369 -5371 -5383 -5385 -5381 -5371 -5361 -5357 -5357 -5371 -5374 -5400 -5425 -5437 -5458 -5480 -5501 -5514 -5520 -5526 -5526 -5527 -5522 -5511 -5501 -5493 -5490 -5461 -5440 -5442 -5430 -5424 -5425 -5427 -5429 -5435 -5437 -5430 -5433 -5444 -5442 -5435 -5440 -5442 -5443 -5450 -5448 -5447 -5453 -5454 -5456 -5454 -5456 -5464 -5461 -5456 -5458 -5460 -5451 -5462 -5457 -5449 -5448 -5448 -5448 -5446 -5449 -5449 -5450 -5451 -5446 -5439 -5444 -5453 -5457 -5461 -5457 -5455 -5449 -5452 -5451 -5453 -5457 -5452 -5447 -5445 -5439 -5439 -5437 -5436 -5438 -5436 -5444 -5442 -5437 -5432 -5436 -5440 -5441 -5442 -5441 -5443 -5442 -5445 -5448 -5447 -5441 -5434 -5435 -5438 -5443 -5445 -5444 -5434 -5427 -5428 -5430 -5430 -5429 -5431 -5433 -5430 -5429 -5430 -5432 -5431 -5431 -5430 -5435 -5434 -5421 -5426 -5422 -5422 -5417 -5415 -5417 -5417 -5414 -5413 -5414 -5425 -5423 -5412 -5412 -5420 -5417 -5414 -5416 -5418 -5413 -5409 -5411 -5412 -5413 -5404 -5404 -5405 -5405 -5403 -5401 -5405 -5410 -5410 -5403 -5404 -5408 -5413 -5408 -5410 -5411 -5407 -5405 -5405 -5405 -5408 -5407 -5405 -5409 -5424 -5415 -5410 -5414 -5414 -5412 -5419 -5413 -5409 -5408 -5416 -5422 -5432 -5429 -5425 -5425 -5427 -5428 -5429 -5432 -5434 -5433 -5430 -5425 -5426 -5427 -5424 -5424 -5427 -5424 -5421 -5424 -5427
-5449 -5449 -5443 -5441 -5447 -5440 -5434 -5434 -5427 -5416 -5409 -5407 -5405 -5403 -5399 -5404 -5419 -5437 -5452 -5474 -5497 -5517 -5533 -5543 -5547 -5541 -5533 -5533 -5523 -5506 -5493 -5476 -5465 -5444 -5424 -5414 -5413 -5420 -5429 -5439 -5451 -5463 -5467 -5468 -5471 -5469 -5467 -5469 -5473 -5471 -5482 -5476 -5474 -5479 -5482 -5483 -5480 -5478 -5477 -5472 -5466 -5465 -5470 -5470 -5466 -5466 -5469 -5469 -5472 -5474 -5472 -5468 -5463 -5462 -5456 -5454 -5465 -5469 -5460 -5458 -5452 -5455 -5455 -5452 -5450 -5451 -5454 -5453 -5453 -5444 -5440 -5440 -5448 -5451 -5453 -5452 -5450 -5449 -5453 -5460 -5460 -5454 -5448 -5445 -5435 -5436 -5432 -5432 -5439 -5449 -5484 -5522 -5554 -5573 -5578 -5579 -5583 -5576 -5561 -5534 -5492 -5448 -5426 -5427 -5421 -5424 -5433 -5450 -5445 -5463 -5455 -5449 -5448 -5448 -5448 -5445 -5441 -5435 -5431 -5435 -5431 -5431 -5433 -5434 -5439 -5448 -5450 -5443 -5431 -5430 -5437 -5433 -5429 -5422 -5424 -5424 -5430 -5433 -5428 -5415 -5405 -5401 -5406 -5406 -5403 -5395 -5384 -5380 -5380 -5379 -5376 -5378 -5399 -5430 -5459 -5500 -5518 -5553 -5582 -5596 -5612 -5622 -5614 -5612 -5608 -5598 -5576 -5551 -5519 -5500 -5459 -5419 -5381 -5351 -5343 -5346 -5352 -5363 -5380 -5384 -5397 -5399 -5400 -5400 -5406 -5410 -5405 -5401 -5398 -5405 -5405 -5411 -5419 -5420 -5410 -5399 -5396 -5397 -5395 -5394 -5392 -5397 -5399 -5407 -5413 -5411 -5405 -5407 -5409 -5403 -5402 -5403 -5398 -5394 -5395 -5397 -5393 -5395 -5393 -5389 -5380 -5379 -5364 -5361 -5360 -5362 -5366 -5368 -5365 -5360 -5360 -5361 -5373 -5360 -5360 -5360 -5363 -5363 -5359 -5359 -5355 -5347 -5345 -5347 -5343 -5337 -5342 -5342 -5344 -5349 -5353 -5356 -5337 -5342 -5339 -5329 -5330 -5340 -5342 -5343 -5344 -5350 -5357 -5353 -5361 -5360 -5364 -5381 -5388 -5385 -5373 -5365 -5361 -5356 -5368 -5372 -5389 -5408 -5419 -5438 -5457 -5475 -5486 -5493 -5498 -5497 -5497 -5489 -5478 -5466 -5457 -5454 -5436 -5415 -5422 -5416 -5416 -5418 -5427 -5430 -5432 -5437 -5435 -5435 -5437 -5436 -5442 -5453 -5454 -5454 -5471 -5458 -5454 -5454 -5459 -5464 -5459 -5452 -5458 -5459 -5461 -5464 -5462 -5450 -5457 -5449 -5444 -5446 -5446 -5447 -5443 -5444 -5443 -5445 -5451 -5450 -5445 -5446 -5446 -5450 -5456 -5453 -5448 -5442 -5449 -5450 -5451 -5457 -5454 -5445 -5445 -5437 -5439 -5441 -5443 -5438 -5435 -5440 -5443 -5438 -5434 -5435 -5435 -5438 -5439 -5441 -5438 -5435 -5440 -5446 -5447 -5442 -5433 -5435 -5438 -5444 -5448 -5450 -5437 -5428 -5428 -5429 -5429 -5429 -5433 -5437 -5435 -5432 -5432 -5433 -5431 -5429 -5427 -5428 -5427 -5422 -5424 -5424 -5424 -5417 -5413 -5413 -5413 -5411 -5409 -5413 -5426 -5424 -5410 -5412 -5419 -5417 -5416 -5416 -5416 -5411 -5405 -5403 -5406 -5409 -5402 -5401 -5403 -5411 -5413 -5409 -5404 -5407 -5409 -5406 -5405 -5407 -5407 -5404 -5410 -5415 -5410 -5404 -5405 -5398 -5406 -5410 -5409 -5411 -5419 -5412 -5414 -5415 -5409 -5406 -5416 -5419 -5420 -5415 -5419 -5424 -5433 -5433 -5429 -5427 -5425 -5425 -5425 -5430 -5432 -5433 -5431 -5423 -5422 -5420 -5419 -5420 -5422 -5421 -5421 -5427 -5431
-5446 -5451 -5445 -5445 -5450 -5442 -5439 -5434 -5433 -5426 -5415 -5411 -5408 -5396 -5383 -5386 -5395 -5404 -5415 -5434 -5455 -5474 -5487 -5491 -5491 -5485 -5483 -5480 -5474 -5463 -5455 -5445 -5436 -5425 -5415 -5413 -5416 -5427 -5436 -5445 -5455 -5463 -5469 -5470 -5471 -5467 -5463 -5469 -5474 -5469 -5477 -5476 -5477 -5477 -5477 -5480 -5484 -5478 -5476 -5473 -5464 -5461 -5462 -5471 -5470 -5470 -5472 -5471 -5469 -5467 -5470 -5472 -5466 -5462 -5460 -5463 -5468 -5464 -5456 -5456 -5452 -5454 -5454 -5449 -5447 -5448 -5453 -5452 -5460 -5450 -5443 -5443 -5451 -5450 -5450 -5453 -5455 -5453 -5453 -5457 -5458 -5456 -5450 -5446 -5434 -5433 -5428 -5430 -5442 -5452 -5482 -5515 -5545 -5570 -5579 -5581 -5581 -5572 -5556 -5532 -5495 -5449 -5437 -5420 -5416 -5426 -5442 -5445 -5447 -5458 -5446 -5445 -5447 -5448 -5447 -5443 -5439 -5436 -5435 -5448 -5443 -5435 -5435 -5433 -5443 -5454 -5456 -5449 -5438 -5433 -5434 -5433 -5430 -5426 -5424 -5422 -5428 -5432 -5427 -5411 -5402 -5405 -5410 -5403 -5397 -5386 -5378 -5376 -5374 -5375 -5375 -5388 -5418 -5454 -5489 -5533 -5553 -5588 -5613 -5630 -5648 -5655 -5653 -5650 -5642 -5628 -5604 -5579 -5547 -5529 -5489 -5444 -5398 -5359 -5343 -5343 -5348 -5356 -5374 -5380 -5387 -5388 -5393 -5400 -5404 -5404 -5397 -5396 -5398 -5403 -5403 -5407 -5413 -5414 -5408 -5401 -5399 -5402 -5400 -5397 -5395 -5397 -5396 -5399 -5408 -5410 -5408 -5409 -5402 -5396 -5398 -5398 -5394 -5392 -5389 -5390 -5394 -5395 -5391 -5384 -5374 -5375 -5368 -5366 -5363 -5361 -5362 -5365 -5363 -5357 -5355 -5357 -5368 -5362 -5358 -5357 -5359 -5356 -5356 -5359 -5354 -5344 -5344 -5342 -5340 -5337 -5342 -5345 -5349 -5362 -5369 -5368 -5347 -5351 -5344 -5325 -5327 -5343 -5345 -5344 -5348 -5356 -5363 -5354 -5354 -5350 -5356 -5379 -5392 -5387 -5376 -5368 -5365 -5363 -5371 -5370 -5385 -5399 -5405 -5420 -5436 -5452 -5462 -5468 -5471 -5470 -5469 -5462 -5449 -5438 -5430 -5427 -5411 -5400 -5410 -5408 -5414 -5420 -5430 -5430 -5434 -5442 -5443 -5440 -5434 -5430 -5448 -5460 -5466 -5473 -5485 -5470 -5459 -5453 -5465 -5468 -5462 -5450 -5448 -5454 -5467 -5469 -5461 -5452 -5453 -5444 -5446 -5450 -5451 -5444 -5439 -5443 -5442 -5443 -5449 -5451 -5448 -5446 -5445 -5448 -5449 -5446 -5444 -5440 -5444 -5449 -5448 -5453 -5450 -5442 -5445 -5444 -5445 -5446 -5444 -5436 -5437 -5440 -5445 -5439 -5440 -5447 -5448 -5446 -5446 -5442 -5435 -5431 -5437 -5439 -5439 -5439 -5433 -5439 -5438 -5443 -5446 -5446 -5436 -5432 -5430 -5427 -5428 -5425 -5427 -5431 -5435 -5434 -5433 -5433 -5434 -5428 -5423 -5426 -5425 -5421 -5423 -5424 -5422 -5416 -5413 -5411 -5417 -5425 -5413 -5412 -5428 -5428 -5409 -5410 -5416 -5414 -5412 -5411 -5409 -5407 -5402 -5400 -5406 -5406 -5409 -5400 -5401 -5420 -5419 -5416 -5405 -5403 -5407 -5403 -5403 -5404 -5401 -5399 -5408 -5416 -5414 -5406 -5411 -5402 -5410 -5412 -5411 -5411 -5417 -5411 -5411 -5410 -5404 -5401 -5413 -5422 -5419 -5415 -5420 -5423 -5429 -5435 -5436 -5433 -5428 -5426 -5427 -5430 -5433 -5431 -5430 -5425 -5421 -5417 -5420 -5422 -5425 -5431 -5433 -5440 -5438
-5448 -5450 -5450 -5446 -5442 -5437 -5435 -5436 -5438 -5432 -5422 -5415 -5410 -5395 -5385 -5386 -5385 -5388 -5391 -5407 -5420 -5434 -5445 -5447 -5448 -5448 -5439 -5445 -5437 -5433 -5429 -5420 -5417 -5418 -5416 -5423 -5427 -5437 -5450 -5460 -5464 -5468 -5470 -5474 -5477 -5471 -5466 -5468 -5470 -5469 -5476 -5478 -5482 -5477 -5471 -5471 -5479 -5476 -5472 -5466 -5462 -5462 -5464 -5465 -5466 -5469 -5471 -5470 -5466 -5462 -5465 -5467 -5462 -5458 -5459 -5468 -5470 -5464 -5457 -5457 -5454 -5455 -5452 -5449 -5451 -5452 -5457 -5451 -5478 -5462 -5447 -5448 -5454 -5451 -5451 -5454 -5455 -5454 -5455 -5456 -5457 -5456 -5447 -5442 -5434 -5434 -5431 -5428 -5439 -5452 -5486 -5515 -5541 -5559 -5571 -5574 -5573 -5561 -5547 -5523 -5487 -5441 -5435 -5415 -5412 -5423 -5438 -5436 -5436 -5443 -5442 -5444 -5444 -5445 -5447 -5446 -5445 -5441 -5440 -5451 -5449 -5441 -5433 -5431 -5439 -5444 -5443 -5441 -5442 -5437 -5428 -5428 -5428 -5426 -5420 -5417 -5422 -5426 -5424 -5416 -5408 -5412 -5415 -5400 -5389 -5374 -5374 -5372 -5372 -5374 -5378 -5403 -5439 -5480 -5520 -5561 -5580 -5612 -5638 -5661 -5677 -5688 -5680 -5677 -5666 -5648 -5626 -5602 -5572 -5554 -5513 -5466 -5417 -5378 -5353 -5346 -5345 -5354 -5369 -5379 -5381 -5382 -5393 -5409 -5408 -5401 -5394 -5395 -5398 -5402 -5404 -5408 -5409 -5410 -5408 -5402 -5402 -5407 -5403 -5399 -5396 -5397 -5398 -5399 -5409 -5413 -5413 -5408 -5396 -5393 -5398 -5399 -5397 -5396 -5393 -5390 -5395 -5394 -5390 -5382 -5375 -5370 -5374 -5371 -5369 -5363 -5360 -5362 -5362 -5358 -5356 -5355 -5362 -5357 -5352 -5354 -5356 -5353 -5354 -5355 -5350 -5343 -5345 -5343 -5339 -5340 -5342 -5349 -5357 -5374 -5388 -5384 -5359 -5359 -5349 -5330 -5327 -5340 -5348 -5351 -5356 -5365 -5366 -5356 -5351 -5346 -5353 -5381 -5394 -5385 -5372 -5364 -5364 -5368 -5373 -5369 -5382 -5391 -5394 -5402 -5413 -5429 -5440 -5441 -5443 -5442 -5444 -5434 -5432 -5423 -5415 -5412 -5400 -5399 -5403 -5404 -5416 -5424 -5430 -5434 -5440 -5446 -5443 -5440 -5432 -5430 -5445 -5462 -5472 -5484 -5498 -5481 -5465 -5452 -5463 -5464 -5461 -5450 -5443 -5450 -5463 -5464 -5458 -5448 -5449 -5440 -5442 -5445 -5444 -5437 -5436 -5445 -5446 -5445 -5447 -5448 -5447 -5449 -5449 -5449 -5447 -5448 -5450 -5445 -5444 -5447 -5447 -5447 -5445 -5438 -5441 -5442 -5440 -5439 -5439 -5439 -5443 -5440 -5445 -5435 -5450 -5462 -5459 -5449 -5447 -5446 -5444 -5446 -5447 -5436 -5432 -5433 -5431 -5441 -5439 -5437 -5438 -5434 -5431 -5433 -5427 -5426 -5429 -5429 -5427 -5429 -5433 -5432 -5430 -5430 -5432 -5427 -5423 -5429 -5428 -5421 -5425 -5423 -5421 -5418 -5416 -5413 -5421 -5432 -5416 -5411 -5423 -5423 -5408 -5409 -5414 -5407 -5402 -5401 -5403 -5401 -5397 -5397 -5405 -5407 -5414 -5403 -5401 -5409 -5413 -5410 -5400 -5399 -5409 -5408 -5403 -5401 -5400 -5400 -5403 -5405 -5416 -5415 -5424 -5422 -5424 -5416 -5413 -5416 -5420 -5411 -5410 -5413 -5406 -5404 -5412 -5415 -5417 -5420 -5425 -5426 -5432 -5442 -5448 -5444 -5435 -5425 -5422 -5423 -5429 -5429 -5428 -5429 -5425 -5418 -5423 -5426 -5429 -5437 -5440 -5443 -5435
-5452 -5454 -5455 -5447 -5438 -5438 -5436 -5442 -5441 -5436 -5428 -5415 -5408 -5401 -5399 -5395 -5388 -5383 -5380 -5394 -5400 -5410 -5418 -5420 -5422 -5428 -5412 -5425 -5410 -5412 -5410 -5408 -5411 -5415 -5420 -5430 -5435 -5445 -5449 -5466 -5467 -5470 -5470 -5477 -5478 -5474 -5464 -5466 -5469 -5469 -5479 -5478 -5483 -5483 -5479 -5473 -5474 -5472 -5472 -5470 -5468 -5469 -5470 -5470 -5464 -5466 -5466 -5466 -5463 -5461 -5460 -5460 -5461 -5459 -5460 -5465 -5465 -5467 -5462 -5462 -5458 -5456 -5451 -5452 -5454 -5455 -5454 -5451 -5480 -5467 -5452 -5451 -5454 -5452 -5452 -5451 -5450 -5451 -5451 -5448 -5452 -5452 -5443 -5438 -5435 -5434 -5431 -5427 -5432 -5443 -5474 -5501 -5527 -5544 -5554 -5558 -5559 -5549 -5532 -5503 -5468 -5434 -5428 -5418 -5417 -5423 -5434 -5438 -5438 -5437 -5440 -5445 -5444 -5444 -5446 -5446 -5445 -5440 -5439 -5449 -5448 -5443 -5435 -5427 -5431 -5433 -5432 -5432 -5439 -5437 -5428 -5425 -5426 -5427 -5422 -5418 -5421 -5419 -5418 -5416 -5413 -5413 -5412 -5397 -5386 -5371 -5370 -5367 -5368 -5374 -5382 -5414 -5456 -5502 -5542 -5584 -5601 -5631 -5658 -5684 -5699 -5712 -5704 -5702 -5687 -5666 -5643 -5618 -5590 -5575 -5538 -5488 -5438 -5398 -5364 -5351 -5342 -5355 -5368 -5381 -5389 -5392 -5405 -5414 -5406 -5400 -5396 -5395 -5395 -5404 -5404 -5405 -5406 -5409 -5411 -5404 -5401 -5404 -5400 -5397 -5396 -5399 -5400 -5399 -5403 -5405 -5407 -5407 -5398 -5395 -5395 -5395 -5396 -5396 -5396 -5395 -5394 -5396 -5390 -5380 -5373 -5367 -5373 -5375 -5374 -5366 -5358 -5358 -5359 -5359 -5359 -5356 -5360 -5352 -5350 -5356 -5357 -5356 -5356 -5352 -5347 -5345 -5345 -5344 -5342 -5342 -5343 -5356 -5358 -5379 -5395 -5390 -5374 -5361 -5355 -5341 -5329 -5331 -5346 -5357 -5365 -5374 -5363 -5359 -5357 -5360 -5366 -5384 -5389 -5377 -5365 -5358 -5358 -5364 -5366 -5370 -5371 -5380 -5384 -5388 -5394 -5413 -5424 -5421 -5423 -5425 -5431 -5425 -5429 -5418 -5408 -5407 -5397 -5398 -5402 -5407 -5417 -5421 -5427 -5432 -5440 -5444 -5442 -5440 -5434 -5433 -5447 -5465 -5480 -5492 -5501 -5480 -5465 -5451 -5459 -5459 -5461 -5451 -5439 -5441 -5456 -5460 -5458 -5442 -5445 -5436 -5435 -5433 -5428 -5425 -5434 -5438 -5441 -5440 -5442 -5446 -5442 -5448 -5448 -5445 -5447 -5452 -5452 -5447 -5447 -5444 -5447 -5448 -5449 -5443 -5440 -5436 -5432 -5431 -5438 -5442 -5445 -5438 -5441 -5436 -5451 -5462 -5456 -5446 -5448 -5450 -5452 -5455 -5452 -5439 -5433 -5432 -5430 -5437 -5435 -5436 -5436 -5431 -5430 -5429 -5424 -5426 -5430 -5434 -5433 -5432 -5434 -5431 -5428 -5426 -5428 -5427 -5422 -5427 -5427 -5422 -5427 -5421 -5422 -5421 -5419 -5413 -5419 -5427 -5411 -5406 -5410 -5409 -5406 -5407 -5408 -5403 -5398 -5397 -5401 -5402 -5395 -5396 -5404 -5404 -5411 -5405 -5403 -5402 -5411 -5409 -5401 -5400 -5410 -5411 -5407 -5404 -5399 -5396 -5393 -5397 -5412 -5420 -5438 -5444 -5440 -5426 -5417 -5419 -5417 -5410 -5410 -5414 -5403 -5399 -5415 -5412 -5419 -5429 -5432 -5431 -5437 -5447 -5455 -5455 -5442 -5429 -5417 -5417 -5427 -5428 -5428 -5431 -5427 -5421 -5422 -5425 -5428 -5434 -5437 -5436 -5425
-5460 -5459 -5450 -5442 -5442 -5442 -5442 -5449 -5443 -5441 -5437 -5426 -5421 -5413 -5414 -5405 -5395 -5388 -5384 -5392 -5393 -5401 -5406 -5405 -5407 -5412 -5403 -5412 -5400 -5401 -5402 -5405 -5413 -5420 -5428 -5439 -5446 -5457 -5457 -5465 -5465 -5468 -5471 -5482 -5489 -5483 -5472 -5473 -5475 -5468 -5484 -5479 -5475 -5481 -5484 -5482 -5477 -5477 -5478 -5477 -5471 -5469 -5469 -5469 -5463 -5464 -5463 -5462 -5464 -5465 -5464 -5465 -5467 -5466 -5465 -5464 -5461 -5466 -5467 -5460 -5459 -5455 -5452 -5449 -5445 -5444 -5445 -5451 -5467 -5467 -5456 -5454 -5460 -5451 -5450 -5450 -5446 -5442 -5432 -5434 -5446 -5448 -5439 -5436 -5435 -5434 -5432 -5429 -5428 -5433 -5453 -5474 -5498 -5517 -5529 -5533 -5537 -5533 -5513 -5481 -5451 -5424 -5422 -5424 -5430 -5432 -5435 -5437 -5437 -5437 -5440 -5444 -5443 -5443 -5445 -5442 -5438 -5437 -5435 -5440 -5441 -5437 -5434 -5428 -5430 -5433 -5434 -5433 -5436 -5436 -5431 -5428 -5427 -5431 -5430 -5424 -5424 -5417 -5413 -5412 -5412 -5412 -5411 -5394 -5384 -5371 -5368 -5365 -5366 -5375 -5382 -5420 -5469 -5518 -5562 -5598 -5615 -5646 -5676 -5702 -5722 -5735 -5726 -5721 -5704 -5682 -5660 -5633 -5603 -5590 -5554 -5507 -5455 -5408 -5368 -5353 -5342 -5356 -5358 -5377 -5392 -5396 -5406 -5407 -5396 -5395 -5391 -5390 -5396 -5403 -5403 -5401 -5403 -5406 -5409 -5407 -5404 -5401 -5398 -5400 -5403 -5401 -5401 -5401 -5398 -5396 -5397 -5402 -5399 -5396 -5389 -5387 -5391 -5393 -5392 -5391 -5392 -5397 -5392 -5377 -5369 -5369 -5367 -5372 -5373 -5369 -5360 -5358 -5361 -5363 -5362 -5360 -5362 -5354 -5353 -5357 -5357 -5357 -5360 -5355 -5350 -5349 -5347 -5341 -5341 -5339 -5339 -5357 -5358 -5375 -5388 -5383 -5374 -5361 -5358 -5351 -5337 -5331 -5343 -5357 -5364 -5372 -5364 -5361 -5364 -5372 -5375 -5378 -5378 -5369 -5362 -5361 -5363 -5369 -5367 -5370 -5366 -5375 -5379 -5383 -5387 -5406 -5421 -5419 -5419 -5421 -5429 -5426 -5433 -5419 -5409 -5408 -5400 -5399 -5405 -5410 -5416 -5418 -5424 -5430 -5437 -5441 -5441 -5440 -5435 -5432 -5442 -5461 -5478 -5489 -5488 -5473 -5462 -5452 -5457 -5456 -5460 -5454 -5444 -5440 -5452 -5458 -5455 -5437 -5440 -5433 -5430 -5428 -5424 -5426 -5431 -5437 -5437 -5436 -5439 -5442 -5437 -5445 -5449 -5448 -5446 -5448 -5449 -5447 -5451 -5450 -5451 -5452 -5457 -5451 -5440 -5435 -5432 -5434 -5439 -5443 -5445 -5437 -5441 -5437 -5443 -5449 -5446 -5447 -5452 -5452 -5446 -5448 -5445 -5439 -5437 -5439 -5434 -5435 -5433 -5436 -5437 -5439 -5435 -5426 -5425 -5430 -5433 -5435 -5435 -5432 -5431 -5429 -5428 -5423 -5426 -5428 -5423 -5426 -5425 -5421 -5424 -5420 -5422 -5418 -5416 -5414 -5422 -5423 -5412 -5406 -5408 -5404 -5408 -5407 -5403 -5399 -5398 -5397 -5398 -5401 -5397 -5399 -5403 -5402 -5404 -5403 -5403 -5402 -5411 -5410 -5404 -5398 -5404 -5405 -5404 -5403 -5398 -5393 -5386 -5391 -5412 -5421 -5446 -5454 -5450 -5436 -5426 -5425 -5420 -5408 -5408 -5404 -5395 -5392 -5416 -5411 -5419 -5426 -5425 -5425 -5432 -5440 -5451 -5454 -5444 -5440 -5421 -5427 -5427 -5427 -5426 -5422 -5420 -5420 -5423 -5424 -5425 -5427 -5428 -5425 -5416
-5476 -5467 -5446 -5442 -5444 -5446 -5448 -5446 -5436 -5434 -5439 -5440 -5438 -5431 -5426 -5418 -5404 -5396 -5393 -5398 -5399 -5404 -5405 -5401 -5400 -5403 -5403 -5402 -5403 -5404 -5406 -5410 -5418 -5428 -5438 -5448 -5454 -5464 -5460 -5467 -5469 -5472 -5472 -5476 -5482 -5486 -5481 -5476 -5475 -5472 -5484 -5482 -5474 -5477 -5481 -5480 -5475 -5480 -5482 -5478 -5470 -5466 -5463 -5470 -5464 -5468 -5463 -5462 -5463 -5465 -5468 -5466 -5466 -5467 -5469 -5471 -5464 -5461 -5458 -5459 -5458 -5456 -5457 -5449 -5436 -5434 -5443 -5447 -5456 -5459 -5458 -5458 -5461 -5454 -5453 -5453 -5450 -5445 -5428 -5432 -5445 -5444 -5439 -5438 -5436 -5439 -5435 -5431 -5426 -5427 -5438 -5453 -5469 -5484 -5497 -5503 -5511 -5508 -5489 -5457 -5431 -5417 -5416 -5426 -5435 -5439 -5437 -5434 -5433 -5440 -5444 -5441 -5439 -5443 -5445 -5439 -5433 -5435 -5432 -5431 -5432 -5431 -5431 -5436 -5434 -5432 -5432 -5434 -5436 -5434 -5432 -5429 -5429 -5432 -5427 -5427 -5427 -5420 -5416 -5415 -5413 -5411 -5410 -5391 -5380 -5369 -5369 -5366 -5365 -5374 -5387 -5428 -5482 -5530 -5569 -5608 -5623 -5660 -5694 -5718 -5736 -5747 -5739 -5732 -5712 -5693 -5674 -5645 -5613 -5597 -5562 -5515 -5463 -5411 -5369 -5357 -5352 -5358 -5367 -5376 -5387 -5390 -5397 -5399 -5392 -5390 -5388 -5389 -5396 -5404 -5403 -5404 -5408 -5407 -5405 -5406 -5403 -5397 -5400 -5404 -5408 -5406 -5408 -5410 -5404 -5399 -5396 -5402 -5402 -5398 -5391 -5387 -5389 -5391 -5386 -5384 -5392 -5395 -5391 -5374 -5366 -5370 -5367 -5368 -5370 -5371 -5366 -5363 -5365 -5364 -5362 -5358 -5359 -5356 -5355 -5353 -5353 -5357 -5363 -5362 -5361 -5360 -5352 -5346 -5336 -5335 -5338 -5352 -5352 -5368 -5376 -5371 -5365 -5360 -5361 -5355 -5345 -5340 -5346 -5357 -5362 -5365 -5361 -5362 -5369 -5375 -5375 -5372 -5369 -5361 -5356 -5364 -5369 -5376 -5374 -5371 -5368 -5376 -5379 -5383 -5388 -5402 -5420 -5426 -5424 -5425 -5430 -5435 -5436 -5423 -5412 -5410 -5403 -5402 -5408 -5409 -5418 -5423 -5432 -5438 -5440 -5442 -5442 -5440 -5436 -5436 -5441 -5456 -5472 -5486 -5486 -5473 -5466 -5452 -5464 -5458 -5459 -5464 -5460 -5449 -5448 -5448 -5442 -5432 -5434 -5426 -5422 -5422 -5424 -5431 -5430 -5440 -5438 -5440 -5443 -5442 -5440 -5454 -5463 -5460 -5449 -5443 -5446 -5450 -5457 -5457 -5460 -5452 -5462 -5459 -5444 -5445 -5445 -5445 -5441 -5440 -5444 -5437 -5441 -5440 -5442 -5438 -5436 -5443 -5451 -5452 -5443 -5444 -5445 -5440 -5438 -5440 -5429 -5438 -5438 -5435 -5435 -5441 -5437 -5429 -5428 -5432 -5434 -5435 -5433 -5430 -5429 -5429 -5428 -5425 -5430 -5430 -5424 -5424 -5423 -5420 -5422 -5419 -5419 -5415 -5412 -5412 -5423 -5423 -5414 -5405 -5407 -5404 -5407 -5404 -5402 -5399 -5397 -5394 -5394 -5401 -5403 -5405 -5405 -5403 -5402 -5408 -5408 -5399 -5408 -5407 -5401 -5396 -5397 -5394 -5395 -5397 -5397 -5395 -5388 -5396 -5414 -5421 -5446 -5453 -5453 -5441 -5433 -5433 -5426 -5407 -5407 -5395 -5385 -5385 -5410 -5408 -5413 -5417 -5419 -5419 -5422 -5429 -5439 -5440 -5430 -5425 -5419 -5429 -5424 -5425 -5423 -5409 -5406 -5410 -5420 -5425 -5426 -5424 -5423 -5419 -5416
-5488 -5470 -5446 -5441 -5449 -5447 -5447 -5436 -5435 -5432 -5438 -5443 -5441 -5434 -5431 -5426 -5415 -5409 -5404 -5408 -5407 -5408 -5411 -5410 -5408 -5405 -5406 -5408 -5413 -5413 -5415 -5421 -5426 -5434 -5445 -5457 -5461 -5466 -5465 -5471 -5475 -5476 -5471 -5473 -5477 -5483 -5481 -5477 -5475 -5474 -5477 -5478 -5475 -5473 -5471 -5470 -5470 -5475 -5476 -5473 -5466 -5463 -5462 -5467 -5466 -5469 -5464 -5462 -5458 -5458 -5465 -5464 -5460 -5461 -5467 -5471 -5465 -5457 -5452 -5455 -5455 -5455 -5458 -5453 -5444 -5442 -5449 -5444 -5450 -5452 -5456 -5456 -5457 -5453 -5451 -5452 -5455 -5452 -5440 -5437 -5439 -5443 -5437 -5436 -5438 -5441 -5439 -5434 -5429 -5426 -5427 -5435 -5444 -5455 -5468 -5472 -5477 -5470 -5453 -5431 -5416 -5414 -5412 -5426 -5433 -5441 -5443 -5435 -5435 -5442 -5444 -5439 -5438 -5440 -5441 -5435 -5431 -5435 -5432 -5431 -5430 -5431 -5434 -5439 -5433 -5428 -5428 -5431 -5433 -5431 -5429 -5429 -5428 -5425 -5427 -5422 -5422 -5421 -5419 -5419 -5416 -5408 -5404 -5389 -5381 -5372 -5371 -5364 -5364 -5372 -5378 -5434 -5486 -5532 -5580 -5615 -5630 -5667 -5703 -5725 -5740 -5758 -5747 -5739 -5717 -5698 -5682 -5652 -5618 -5601 -5565 -5520 -5467 -5411 -5369 -5356 -5352 -5360 -5369 -5377 -5384 -5389 -5397 -5404 -5400 -5394 -5393 -5396 -5398 -5405 -5403 -5407 -5410 -5409 -5405 -5407 -5404 -5399 -5401 -5404 -5408 -5409 -5413 -5408 -5404 -5402 -5398 -5403 -5406 -5401 -5396 -5394 -5388 -5387 -5385 -5385 -5395 -5396 -5389 -5372 -5366 -5365 -5372 -5368 -5369 -5373 -5369 -5363 -5362 -5360 -5358 -5355 -5354 -5357 -5352 -5349 -5347 -5354 -5362 -5365 -5370 -5375 -5371 -5353 -5336 -5334 -5332 -5342 -5346 -5362 -5367 -5360 -5359 -5360 -5361 -5353 -5346 -5346 -5348 -5356 -5359 -5361 -5362 -5357 -5369 -5378 -5379 -5373 -5364 -5354 -5350 -5360 -5366 -5376 -5375 -5373 -5373 -5382 -5386 -5389 -5390 -5397 -5417 -5430 -5429 -5428 -5432 -5436 -5433 -5420 -5411 -5410 -5406 -5404 -5407 -5409 -5422 -5430 -5440 -5442 -5442 -5447 -5450 -5447 -5440 -5442 -5443 -5454 -5469 -5476 -5478 -5471 -5469 -5453 -5465 -5461 -5463 -5474 -5473 -5458 -5446 -5442 -5432 -5420 -5427 -5423 -5417 -5416 -5418 -5427 -5430 -5435 -5435 -5439 -5443 -5441 -5444 -5459 -5466 -5464 -5453 -5443 -5444 -5450 -5456 -5458 -5460 -5451 -5462 -5463 -5445 -5451 -5455 -5452 -5436 -5434 -5439 -5438 -5439 -5444 -5442 -5430 -5430 -5440 -5446 -5450 -5445 -5447 -5447 -5442 -5439 -5437 -5431 -5440 -5444 -5437 -5435 -5441 -5440 -5437 -5435 -5431 -5431 -5433 -5434 -5434 -5431 -5431 -5431 -5430 -5434 -5430 -5421 -5422 -5424 -5414 -5424 -5420 -5426 -5426 -5421 -5411 -5416 -5421 -5416 -5406 -5404 -5403 -5402 -5398 -5399 -5397 -5392 -5389 -5389 -5399 -5405 -5407 -5409 -5408 -5414 -5416 -5412 -5400 -5404 -5401 -5396 -5392 -5396 -5393 -5393 -5396 -5397 -5394 -5390 -5397 -5410 -5416 -5437 -5441 -5444 -5436 -5429 -5427 -5417 -5406 -5405 -5393 -5386 -5387 -5406 -5402 -5407 -5415 -5418 -5417 -5416 -5418 -5423 -5423 -5414 -5417 -5406 -5415 -5422 -5421 -5419 -5406 -5404 -5405 -5417 -5426 -5425 -5424 -5422 -5419 -5421
-5480 -5463 -5448 -5451 -5450 -5448 -5447 -5435 -5440 -5439 -5440 -5441 -5440 -5437 -5435 -5432 -5425 -5421 -5414 -5420 -5418 -5417 -5419 -5420 -5418 -5411 -5416 -5420 -5424 -5420 -5422 -5428 -5433 -5441 -5454 -5462 -5465 -5467 -5467 -5473 -5474 -5475 -5472 -5474 -5474 -5478 -5482 -5483 -5481 -5475 -5472 -5471 -5474 -5469 -5467 -5465 -5464 -5468 -5468 -5466 -5467 -5468 -5468 -5468 -5467 -5466 -5463 -5463 -5460 -5458 -5463 -5465 -5462 -5461 -5462 -5467 -5466 -5462 -5462 -5454 -5455 -5455 -5454 -5453 -5449 -5447 -5451 -5447 -5447 -5448 -5451 -5452 -5454 -5450 -5449 -5450 -5452 -5450 -5445 -5441 -5438 -5440 -5438 -5436 -5436 -5439 -5439 -5435 -5429 -5425 -5420 -5421 -5425 -5432 -5438 -5439 -5440 -5435 -5426 -5417 -5413 -5417 -5419 -5431 -5436 -5443 -5443 -5434 -5435 -5436 -5438 -5439 -5441 -5439 -5436 -5433 -5433 -5432 -5431 -5430 -5433 -5430 -5432 -5435 -5434 -5432 -5433 -5431 -5430 -5429 -5431 -5432 -5429 -5422 -5425 -5417 -5417 -5420 -5420 -5417 -5414 -5407 -5400 -5393 -5387 -5379 -5372 -5363 -5368 -5373 -5385 -5431 -5482 -5528 -5581 -5612 -5630 -5664 -5694 -5720 -5738 -5756 -5744 -5737 -5716 -5700 -5683 -5657 -5621 -5602 -5565 -5523 -5469 -5410 -5366 -5351 -5342 -5360 -5371 -5378 -5384 -5392 -5403 -5412 -5408 -5402 -5399 -5399 -5398 -5406 -5404 -5406 -5410 -5409 -5409 -5412 -5408 -5406 -5407 -5406 -5404 -5405 -5403 -5398 -5402 -5404 -5400 -5400 -5403 -5399 -5397 -5397 -5394 -5393 -5396 -5395 -5393 -5397 -5387 -5372 -5363 -5361 -5369 -5370 -5370 -5371 -5366 -5362 -5362 -5358 -5356 -5357 -5356 -5358 -5350 -5346 -5346 -5353 -5362 -5366 -5376 -5380 -5372 -5350 -5336 -5330 -5330 -5336 -5342 -5354 -5359 -5357 -5360 -5360 -5359 -5351 -5347 -5347 -5348 -5353 -5355 -5358 -5362 -5360 -5367 -5376 -5377 -5371 -5359 -5355 -5357 -5363 -5366 -5372 -5372 -5377 -5376 -5391 -5396 -5397 -5394 -5398 -5419 -5432 -5432 -5430 -5432 -5436 -5428 -5416 -5415 -5416 -5410 -5408 -5413 -5413 -5420 -5428 -5440 -5440 -5443 -5452 -5454 -5451 -5445 -5446 -5445 -5453 -5468 -5475 -5475 -5471 -5467 -5456 -5466 -5465 -5475 -5491 -5489 -5474 -5459 -5449 -5428 -5418 -5418 -5421 -5420 -5418 -5416 -5420 -5427 -5430 -5430 -5433 -5436 -5435 -5441 -5452 -5455 -5456 -5453 -5445 -5442 -5446 -5453 -5456 -5459 -5453 -5459 -5459 -5446 -5446 -5449 -5446 -5429 -5430 -5438 -5438 -5438 -5445 -5438 -5423 -5431 -5439 -5441 -5443 -5444 -5445 -5445 -5444 -5442 -5435 -5429 -5438 -5445 -5437 -5435 -5440 -5443 -5446 -5439 -5433 -5431 -5432 -5434 -5433 -5430 -5431 -5433 -5433 -5430 -5425 -5419 -5427 -5428 -5413 -5420 -5418 -5429 -5432 -5425 -5409 -5408 -5417 -5417 -5407 -5400 -5400 -5400 -5391 -5393 -5394 -5392 -5389 -5388 -5396 -5405 -5411 -5416 -5419 -5426 -5420 -5413 -5404 -5402 -5396 -5389 -5390 -5397 -5397 -5396 -5397 -5394 -5390 -5389 -5393 -5402 -5406 -5422 -5421 -5434 -5416 -5417 -5418 -5411 -5407 -5403 -5401 -5394 -5392 -5404 -5398 -5403 -5414 -5413 -5411 -5408 -5409 -5413 -5415 -5410 -5416 -5402 -5405 -5416 -5417 -5418 -5411 -5413 -5417 -5419 -5418 -5414 -5417 -5420 -5420 -5422
-5464 -5456 -5451 -5447 -5451 -5449 -5450 -5439 -5444 -5443 -5440 -5438 -5439 -5441 -5441 -5438 -5432 -5430 -5426 -5429 -5428 -5428 -5428 -5427 -5425 -5422 -5427 -5429 -5436 -5431 -5430 -5433 -5441 -5452 -5462 -5465 -5465 -5465 -5469 -5472 -5473 -5474 -5477 -5479 -5476 -5477 -5481 -5482 -5480 -5475 -5467 -5465 -5465 -5458 -5457 -5461 -5462 -5465 -5465 -5464 -5467 -5468 -5466 -5468 -5465 -5464 -5460 -5460 -5458 -5458 -5463 -5466 -5462 -5459 -5461 -5464 -5464 -5463 -5461 -5457 -5454 -5455 -5451 -5453 -5450 -5449 -5447 -5452 -5448 -5449 -5447 -5447 -5451 -5450 -5448 -5447 -5450 -5451 -5449 -5445 -5439 -5441 -5440 -5439 -5435 -5439 -5437 -5432 -5427 -5425 -5422 -5420 -5417 -5418 -5420 -5420 -5421 -5418 -5415 -5414 -5418 -5420 -5422 -5438 -5438 -5437 -5435 -5435 -5434 -5432 -5434 -5437 -5440 -5438 -5435 -5433 -5433 -5430 -5430 -5429 -5428 -5430 -5430 -5438 -5437 -5439 -5439 -5435 -5431 -5429 -5432 -5433 -5430 -5422 -5422 -5417 -5416 -5416 -5415 -5410 -5410 -5406 -5400 -5395 -5391 -5380 -5369 -5365 -5365 -5371 -5376 -5424 -5479 -5530 -5574 -5605 -5623 -5657 -5688 -5709 -5727 -5744 -5730 -5724 -5709 -5694 -5678 -5653 -5619 -5599 -5560 -5521 -5463 -5406 -5363 -5349 -5340 -5359 -5373 -5381 -5387 -5393 -5401 -5404 -5402 -5403 -5401 -5399 -5397 -5407 -5402 -5402 -5406 -5407 -5409 -5410 -5407 -5409 -5409 -5407 -5403 -5397 -5398 -5397 -5404 -5407 -5404 -5399 -5399 -5395 -5394 -5397 -5401 -5402 -5401 -5399 -5391 -5394 -5386 -5374 -5362 -5361 -5361 -5370 -5372 -5369 -5363 -5364 -5363 -5359 -5359 -5359 -5354 -5357 -5353 -5351 -5348 -5351 -5362 -5365 -5371 -5375 -5369 -5345 -5334 -5329 -5329 -5330 -5337 -5345 -5350 -5355 -5360 -5361 -5358 -5350 -5343 -5345 -5350 -5354 -5358 -5364 -5360 -5367 -5364 -5365 -5367 -5363 -5357 -5358 -5367 -5369 -5368 -5369 -5372 -5381 -5382 -5392 -5395 -5397 -5397 -5404 -5424 -5435 -5434 -5432 -5434 -5436 -5427 -5422 -5427 -5430 -5416 -5415 -5426 -5418 -5417 -5421 -5431 -5433 -5443 -5456 -5457 -5455 -5451 -5453 -5450 -5453 -5466 -5472 -5471 -5471 -5470 -5466 -5485 -5487 -5496 -5507 -5506 -5497 -5477 -5463 -5430 -5417 -5408 -5416 -5422 -5421 -5415 -5415 -5422 -5423 -5424 -5425 -5429 -5433 -5437 -5441 -5442 -5444 -5445 -5441 -5437 -5443 -5454 -5449 -5451 -5453 -5454 -5453 -5444 -5442 -5444 -5437 -5424 -5426 -5433 -5437 -5435 -5442 -5430 -5425 -5435 -5435 -5434 -5436 -5440 -5438 -5439 -5443 -5441 -5432 -5430 -5435 -5441 -5436 -5434 -5434 -5438 -5446 -5437 -5431 -5432 -5430 -5427 -5425 -5424 -5430 -5433 -5432 -5422 -5417 -5419 -5426 -5427 -5412 -5414 -5412 -5425 -5426 -5420 -5406 -5405 -5410 -5414 -5406 -5395 -5394 -5396 -5386 -5387 -5391 -5389 -5390 -5393 -5399 -5408 -5414 -5416 -5420 -5424 -5414 -5406 -5402 -5400 -5393 -5387 -5393 -5399 -5400 -5397 -5396 -5391 -5387 -5388 -5390 -5394 -5396 -5403 -5400 -5397 -5399 -5408 -5412 -5412 -5407 -5406 -5405 -5394 -5388 -5404 -5397 -5400 -5405 -5400 -5399 -5402 -5406 -5412 -5413 -5412 -5413 -5409 -5406 -5412 -5414 -5417 -5412 -5416 -5426 -5419 -5409 -5403 -5411 -5415 -5419 -5416
-5457 -5455 -5453 -5451 -5453 -5450 -5450 -5445 -5446 -5444 -5439 -5437 -5440 -5447 -5446 -5441 -5436 -5435 -5436 -5436 -5435 -5437 -5438 -5435 -5431 -5431 -5434 -5436 -5445 -5442 -5442 -5442 -5448 -5455 -5465 -5467 -5468 -5469 -5470 -5469 -5470 -5472 -5477 -5484 -5479 -5477 -5478 -5475 -5473 -5470 -5467 -5466 -5464 -5456 -5456 -5461 -5464 -5465 -5462 -5464 -5465 -5464 -5460 -5466 -5461 -5464 -5457 -5454 -5454 -5456 -5461 -5463 -5461 -5460 -5463 -5465 -5462 -5458 -5454 -5455 -5453 -5453 -5450 -5451 -5450 -5449 -5448 -5451 -5453 -5451 -5446 -5445 -5447 -5451 -5448 -5443 -5447 -5449 -5448 -5442 -5436 -5441 -5439 -5438 -5435 -5437 -5436 -5433 -5428 -5427 -5425 -5422 -5415 -5413 -5413 -5413 -5415 -5416 -5416 -5419 -5421 -5426 -5426 -5441 -5436 -5432 -5432 -5433 -5431 -5431 -5435 -5435 -5438 -5441 -5441 -5434 -5430 -5431 -5432 -5430 -5430 -5431 -5431 -5440 -5439 -5439 -5439 -5436 -5434 -5431 -5432 -5431 -5427 -5420 -5421 -5418 -5415 -5412 -5409 -5405 -5407 -5405 -5399 -5395 -5391 -5378 -5367 -5365 -5360 -5372 -5383 -5418 -5474 -5525 -5567 -5601 -5618 -5650 -5676 -5696 -5708 -5726 -5709 -5704 -5694 -5680 -5665 -5642 -5610 -5591 -5550 -5502 -5449 -5396 -5357 -5347 -5343 -5357 -5373 -5380 -5388 -5391 -5394 -5395 -5394 -5399 -5404 -5403 -5403 -5404 -5397 -5396 -5399 -5400 -5404 -5405 -5405 -5408 -5407 -5406 -5405 -5403 -5403 -5403 -5405 -5407 -5405 -5397 -5398 -5396 -5392 -5394 -5398 -5402 -5397 -5393 -5391 -5395 -5390 -5377 -5364 -5360 -5357 -5366 -5371 -5366 -5360 -5361 -5361 -5361 -5360 -5356 -5355 -5356 -5357 -5356 -5353 -5351 -5356 -5360 -5363 -5370 -5354 -5339 -5334 -5326 -5329 -5331 -5334 -5341 -5344 -5345 -5356 -5361 -5359 -5348 -5341 -5346 -5355 -5361 -5364 -5374 -5363 -5364 -5353 -5352 -5354 -5359 -5362 -5363 -5372 -5373 -5371 -5373 -5381 -5383 -5393 -5386 -5384 -5390 -5397 -5408 -5425 -5432 -5433 -5432 -5436 -5433 -5429 -5425 -5427 -5430 -5419 -5419 -5426 -5418 -5418 -5420 -5422 -5424 -5439 -5463 -5470 -5468 -5459 -5458 -5457 -5456 -5464 -5463 -5464 -5465 -5468 -5476 -5507 -5514 -5516 -5514 -5517 -5510 -5490 -5475 -5445 -5425 -5416 -5422 -5425 -5425 -5423 -5425 -5425 -5422 -5417 -5417 -5426 -5433 -5436 -5436 -5438 -5439 -5442 -5440 -5438 -5443 -5451 -5445 -5446 -5453 -5452 -5448 -5443 -5439 -5440 -5434 -5423 -5422 -5425 -5436 -5426 -5434 -5421 -5429 -5441 -5439 -5436 -5431 -5434 -5434 -5433 -5436 -5435 -5430 -5431 -5435 -5437 -5434 -5433 -5426 -5428 -5436 -5431 -5428 -5429 -5424 -5421 -5422 -5424 -5428 -5430 -5428 -5419 -5413 -5416 -5420 -5421 -5410 -5423 -5429 -5439 -5439 -5431 -5419 -5416 -5413 -5412 -5404 -5401 -5400 -5390 -5387 -5384 -5395 -5402 -5406 -5410 -5409 -5414 -5416 -5410 -5414 -5412 -5403 -5399 -5400 -5404 -5400 -5397 -5403 -5403 -5401 -5398 -5396 -5389 -5386 -5391 -5391 -5392 -5393 -5391 -5395 -5394 -5399 -5405 -5406 -5408 -5406 -5406 -5398 -5386 -5380 -5403 -5395 -5395 -5397 -5390 -5389 -5396 -5407 -5411 -5409 -5408 -5408 -5409 -5408 -5410 -5413 -5416 -5410 -5413 -5421 -5416 -5411 -5410 -5412 -5414 -5413 -5410
-5457 -5456 -5455 -5454 -5454 -5453 -5454 -5450 -5449 -5445 -5440 -5438 -5441 -5448 -5447 -5444 -5441 -5444 -5444 -5445 -5442 -5442 -5443 -5440 -5437 -5444 -5445 -5443 -5451 -5448 -5448 -5451 -5454 -5459 -5466 -5470 -5473 -5475 -5470 -5469 -5469 -5471 -5473 -5477 -5473 -5475 -5473 -5470 -5469 -5469 -5468 -5469 -5469 -5465 -5463 -5462 -5466 -5465 -5460 -5464 -5468 -5468 -5464 -5464 -5461 -5464 -5458 -5457 -5454 -5453 -5458 -5461 -5462 -5463 -5465 -5467 -5461 -5455 -5452 -5451 -5451 -5453 -5449 -5449 -5450 -5449 -5449 -5449 -5453 -5450 -5447 -5450 -5446 -5450 -5446 -5441 -5444 -5445 -5444 -5441 -5438 -5442 -5439 -5437 -5435 -5435 -5438 -5434 -5427 -5427 -5425 -5420 -5415 -5415 -5417 -5416 -5417 -5419 -5420 -5424 -5425 -5432 -5429 -5435 -5433 -5429 -5432 -5432 -5431 -5430 -5434 -5434 -5434 -5442 -5443 -5435 -5429 -5431 -5431 -5431 -5432 -5434 -5429 -5436 -5436 -5435 -5435 -5433 -5429 -5429 -5430 -5426 -5424 -5420 -5425 -5418 -5415 -5412 -5409 -5406 -5407 -5404 -5398 -5395 -5391 -5378 -5373 -5358 -5362 -5367 -5369 -5410 -5461 -5507 -5550 -5587 -5607 -5638 -5661 -5681 -5689 -5705 -5686 -5684 -5678 -5663 -5645 -5626 -5591 -5572 -5533 -5484 -5431 -5383 -5352 -5346 -5350 -5355 -5371 -5378 -5393 -5399 -5401 -5396 -5390 -5393 -5398 -5400 -5408 -5399 -5392 -5391 -5392 -5393 -5398 -5399 -5397 -5404 -5404 -5404 -5405 -5405 -5400 -5405 -5405 -5406 -5400 -5393 -5397 -5399 -5394 -5391 -5391 -5398 -5394 -5391 -5390 -5395 -5390 -5376 -5367 -5361 -5353 -5358 -5363 -5361 -5356 -5358 -5361 -5367 -5365 -5356 -5356 -5353 -5352 -5350 -5351 -5350 -5350 -5350 -5353 -5351 -5343 -5332 -5331 -5323 -5330 -5332 -5333 -5338 -5339 -5336 -5346 -5352 -5351 -5345 -5347 -5357 -5368 -5370 -5370 -5373 -5362 -5356 -5341 -5342 -5346 -5360 -5369 -5370 -5378 -5379 -5379 -5382 -5384 -5386 -5395 -5384 -5379 -5385 -5397 -5407 -5420 -5427 -5430 -5430 -5441 -5438 -5428 -5427 -5423 -5423 -5421 -5422 -5425 -5414 -5413 -5416 -5421 -5428 -5448 -5475 -5486 -5483 -5468 -5463 -5456 -5459 -5463 -5455 -5458 -5457 -5464 -5470 -5516 -5524 -5523 -5519 -5523 -5518 -5501 -5490 -5466 -5443 -5444 -5449 -5447 -5445 -5448 -5451 -5444 -5430 -5415 -5415 -5428 -5435 -5435 -5437 -5441 -5444 -5446 -5442 -5441 -5442 -5443 -5445 -5445 -5452 -5453 -5447 -5442 -5437 -5436 -5433 -5425 -5422 -5424 -5437 -5422 -5422 -5422 -5436 -5451 -5455 -5450 -5430 -5427 -5430 -5431 -5430 -5430 -5428 -5427 -5432 -5430 -5430 -5428 -5422 -5420 -5425 -5422 -5422 -5423 -5421 -5419 -5423 -5430 -5430 -5429 -5426 -5421 -5416 -5417 -5412 -5411 -5410 -5438 -5468 -5482 -5476 -5468 -5448 -5435 -5422 -5412 -5400 -5411 -5411 -5389 -5396 -5399 -5419 -5433 -5438 -5439 -5435 -5438 -5434 -5411 -5410 -5405 -5398 -5398 -5395 -5409 -5409 -5412 -5413 -5403 -5399 -5398 -5396 -5391 -5390 -5394 -5397 -5394 -5396 -5393 -5397 -5397 -5397 -5410 -5401 -5405 -5404 -5399 -5390 -5382 -5380 -5403 -5390 -5386 -5388 -5385 -5382 -5388 -5401 -5404 -5401 -5401 -5404 -5405 -5407 -5411 -5412 -5413 -5412 -5412 -5415 -5416 -5416 -5415 -5411 -5410 -5408 -5410
-5456 -5454 -5454 -5452 -5449 -5454 -5452 -5452 -5451 -5446 -5441 -5438 -5438 -5440 -5442 -5444 -5446 -5453 -5450 -5455 -5451 -5445 -5441 -5441 -5439 -5455 -5453 -5444 -5458 -5453 -5455 -5456 -5461 -5464 -5469 -5474 -5476 -5477 -5472 -5475 -5472 -5473 -5475 -5476 -5477 -5467 -5466 -5466 -5470 -5475 -5471 -5470 -5471 -5469 -5469 -5466 -5467 -5470 -5469 -5467 -5465 -5464 -5466 -5470 -5462 -5461 -5461 -5461 -5458 -5453 -5455 -5455 -5459 -5461 -5464 -5462 -5457 -5453 -5452 -5452 -5452 -5454 -5448 -5449 -5451 -5451 -5453 -5449 -5454 -5451 -5446 -5449 -5448 -5450 -5448 -5444 -5442 -5443 -5442 -5440 -5438 -5441 -5440 -5439 -5436 -5435 -5439 -5433 -5426 -5426 -5424 -5419 -5416 -5421 -5422 -5422 -5422 -5423 -5426 -5432 -5434 -5433 -5432 -5430 -5432 -5430 -5431 -5431 -5430 -5434 -5436 -5434 -5435 -5441 -5442 -5437 -5434 -5435 -5435 -5432 -5431 -5429 -5428 -5431 -5430 -5429 -5431 -5430 -5425 -5424 -5422 -5419 -5421 -5423 -5433 -5419 -5415 -5414 -5412 -5408 -5407 -5404 -5400 -5396 -5392 -5379 -5374 -5361 -5359 -5356 -5362 -5394 -5441 -5488 -5525 -5569 -5588 -5621 -5644 -5660 -5666 -5678 -5665 -5664 -5655 -5641 -5624 -5602 -5568 -5550 -5509 -5460 -5410 -5371 -5352 -5352 -5358 -5356 -5372 -5388 -5413 -5419 -5415 -5406 -5393 -5390 -5390 -5392 -5401 -5402 -5392 -5391 -5389 -5388 -5392 -5396 -5395 -5403 -5408 -5407 -5402 -5401 -5404 -5404 -5405 -5405 -5399 -5396 -5401 -5399 -5392 -5390 -5392 -5396 -5395 -5391 -5388 -5391 -5389 -5378 -5372 -5359 -5350 -5350 -5354 -5355 -5355 -5364 -5366 -5370 -5367 -5358 -5361 -5350 -5349 -5350 -5349 -5349 -5344 -5338 -5342 -5342 -5339 -5330 -5330 -5326 -5330 -5331 -5330 -5329 -5327 -5329 -5337 -5342 -5341 -5341 -5351 -5363 -5369 -5372 -5369 -5366 -5358 -5356 -5339 -5337 -5344 -5359 -5368 -5374 -5382 -5381 -5381 -5384 -5378 -5385 -5391 -5389 -5385 -5385 -5394 -5405 -5415 -5424 -5427 -5427 -5438 -5439 -5428 -5428 -5425 -5426 -5425 -5429 -5429 -5419 -5413 -5415 -5426 -5438 -5460 -5487 -5494 -5485 -5464 -5458 -5449 -5452 -5456 -5449 -5452 -5448 -5460 -5464 -5510 -5516 -5519 -5522 -5529 -5523 -5508 -5500 -5479 -5465 -5474 -5483 -5484 -5481 -5480 -5478 -5463 -5448 -5428 -5426 -5429 -5427 -5432 -5440 -5444 -5447 -5448 -5440 -5442 -5444 -5443 -5444 -5445 -5452 -5451 -5446 -5442 -5438 -5434 -5428 -5423 -5424 -5428 -5435 -5426 -5430 -5431 -5446 -5459 -5460 -5454 -5436 -5426 -5425 -5428 -5429 -5429 -5428 -5427 -5432 -5426 -5425 -5425 -5423 -5420 -5423 -5426 -5427 -5426 -5424 -5419 -5420 -5427 -5428 -5426 -5424 -5424 -5419 -5416 -5406 -5403 -5409 -5445 -5489 -5510 -5505 -5496 -5469 -5442 -5423 -5412 -5398 -5411 -5410 -5393 -5411 -5426 -5453 -5468 -5474 -5478 -5475 -5468 -5453 -5414 -5411 -5403 -5398 -5399 -5395 -5406 -5407 -5410 -5410 -5400 -5397 -5399 -5399 -5399 -5399 -5395 -5397 -5396 -5396 -5393 -5394 -5399 -5391 -5399 -5404 -5407 -5403 -5394 -5390 -5390 -5391 -5402 -5394 -5381 -5377 -5380 -5379 -5381 -5391 -5393 -5391 -5395 -5401 -5405 -5410 -5409 -5410 -5411 -5411 -5410 -5409 -5412 -5413 -5408 -5405 -5405 -5406 -5409
-5452 -5448 -5451 -5452 -5447 -5450 -5450 -5455 -5457 -5455 -5448 -5447 -5446 -5441 -5442 -5448 -5450 -5457 -5460 -5459 -5463 -5455 -5445 -5445 -5446 -5459 -5460 -5445 -5461 -5461 -5460 -5462 -5467 -5467 -5469 -5475 -5476 -5472 -5471 -5474 -5475 -5479 -5480 -5475 -5476 -5464 -5465 -5467 -5471 -5477 -5472 -5472 -5474 -5474 -5475 -5478 -5474 -5472 -5473 -5465 -5457 -5456 -5464 -5481 -5460 -5458 -5462 -5462 -5460 -5457 -5452 -5449 -5453 -5455 -5457 -5454 -5451 -5450 -5452 -5453 -5452 -5453 -5447 -5447 -5452 -5455 -5461 -5449 -5454 -5452 -5448 -5448 -5449 -5452 -5453 -5449 -5444 -5442 -5440 -5436 -5435 -5441 -5445 -5444 -5434 -5436 -5436 -5431 -5430 -5432 -5429 -5421 -5419 -5426 -5430 -5428 -5423 -5427 -5429 -5433 -5435 -5435 -5433 -5433 -5435 -5434 -5432 -5431 -5430 -5435 -5439 -5438 -5439 -5441 -5440 -5438 -5440 -5440 -5440 -5430 -5431 -5426 -5425 -5436 -5434 -5431 -5432 -5432 -5427 -5424 -5417 -5417 -5420 -5423 -5424 -5423 -5420 -5418 -5417 -5412 -5410 -5410 -5405 -5397 -5392 -5381 -5371 -5361 -5356 -5347 -5353 -5374 -5413 -5461 -5501 -5550 -5568 -5601 -5621 -5629 -5636 -5652 -5639 -5635 -5625 -5613 -5596 -5574 -5543 -5534 -5481 -5432 -5387 -5358 -5350 -5354 -5355 -5357 -5371 -5398 -5415 -5416 -5411 -5410 -5404 -5395 -5392 -5395 -5395 -5412 -5402 -5398 -5395 -5394 -5399 -5401 -5396 -5401 -5409 -5409 -5402 -5399 -5396 -5406 -5406 -5406 -5402 -5401 -5403 -5397 -5392 -5392 -5396 -5396 -5396 -5393 -5385 -5388 -5387 -5380 -5380 -5361 -5354 -5349 -5350 -5350 -5358 -5368 -5366 -5362 -5361 -5357 -5360 -5352 -5355 -5361 -5359 -5351 -5343 -5335 -5338 -5342 -5342 -5329 -5334 -5332 -5332 -5330 -5334 -5325 -5319 -5324 -5329 -5338 -5339 -5343 -5354 -5361 -5361 -5363 -5363 -5360 -5357 -5356 -5339 -5339 -5345 -5354 -5362 -5371 -5377 -5377 -5378 -5383 -5377 -5384 -5381 -5393 -5392 -5385 -5391 -5405 -5415 -5423 -5422 -5424 -5432 -5432 -5432 -5428 -5430 -5432 -5426 -5425 -5433 -5431 -5426 -5428 -5433 -5439 -5454 -5476 -5479 -5471 -5452 -5445 -5445 -5444 -5448 -5444 -5440 -5441 -5453 -5460 -5500 -5507 -5514 -5521 -5529 -5526 -5511 -5504 -5489 -5479 -5496 -5509 -5519 -5520 -5514 -5509 -5500 -5479 -5456 -5448 -5432 -5422 -5429 -5441 -5444 -5445 -5441 -5438 -5444 -5444 -5443 -5442 -5442 -5448 -5447 -5444 -5440 -5435 -5431 -5425 -5422 -5424 -5431 -5434 -5429 -5429 -5431 -5444 -5451 -5448 -5448 -5439 -5426 -5419 -5424 -5426 -5426 -5431 -5434 -5435 -5427 -5425 -5426 -5424 -5424 -5429 -5435 -5432 -5428 -5423 -5418 -5417 -5424 -5426 -5423 -5423 -5425 -5419 -5416 -5407 -5406 -5409 -5445 -5482 -5505 -5503 -5492 -5461 -5430 -5413 -5409 -5397 -5407 -5405 -5394 -5418 -5441 -5480 -5501 -5507 -5509 -5502 -5484 -5456 -5417 -5411 -5399 -5398 -5401 -5398 -5400 -5398 -5401 -5401 -5399 -5402 -5402 -5400 -5400 -5402 -5396 -5398 -5397 -5396 -5394 -5390 -5390 -5396 -5405 -5410 -5410 -5402 -5395 -5391 -5399 -5401 -5400 -5397 -5382 -5373 -5376 -5378 -5383 -5388 -5389 -5386 -5394 -5396 -5407 -5412 -5406 -5408 -5411 -5405 -5405 -5409 -5414 -5413 -5410 -5407 -5407 -5408 -5407
-5451 -5448 -5452 -5454 -5456 -5450 -5451 -5463 -5464 -5462 -5456 -5457 -5455 -5447 -5448 -5453 -5455 -5457 -5459 -5458 -5467 -5467 -5460 -5460 -5459 -5459 -5462 -5452 -5462 -5459 -5460 -5467 -5473 -5468 -5468 -5473 -5475 -5471 -5470 -5479 -5481 -5478 -5478 -5475 -5476 -5467 -5468 -5471 -5474 -5481 -5476 -5471 -5475 -5479 -5481 -5487 -5478 -5467 -5466 -5461 -5454 -5455 -5462 -5464 -5456 -5454 -5455 -5454 -5454 -5456 -5450 -5451 -5453 -5452 -5450 -5449 -5446 -5445 -5450 -5454 -5451 -5454 -5449 -5447 -5452 -5456 -5461 -5450 -5454 -5447 -5450 -5448 -5448 -5452 -5453 -5449 -5443 -5441 -5435 -5427 -5428 -5439 -5450 -5450 -5439 -5437 -5433 -5432 -5434 -5435 -5431 -5426 -5427 -5433 -5436 -5432 -5425 -5428 -5428 -5429 -5436 -5435 -5433 -5439 -5439 -5437 -5435 -5431 -5429 -5433 -5436 -5438 -5435 -5436 -5435 -5435 -5440 -5441 -5440 -5426 -5425 -5426 -5430 -5442 -5442 -5434 -5432 -5429 -5430 -5427 -5417 -5416 -5419 -5423 -5418 -5424 -5425 -5425 -5424 -5417 -5412 -5412 -5407 -5397 -5394 -5386 -5372 -5359 -5356 -5347 -5348 -5356 -5381 -5423 -5471 -5517 -5537 -5572 -5596 -5604 -5608 -5620 -5609 -5605 -5594 -5584 -5566 -5545 -5500 -5494 -5451 -5405 -5362 -5341 -5344 -5349 -5354 -5359 -5373 -5384 -5402 -5400 -5396 -5404 -5404 -5397 -5393 -5393 -5392 -5415 -5412 -5405 -5402 -5405 -5420 -5419 -5403 -5399 -5407 -5407 -5400 -5399 -5396 -5406 -5403 -5405 -5405 -5403 -5401 -5396 -5394 -5395 -5401 -5398 -5399 -5393 -5382 -5383 -5382 -5381 -5382 -5362 -5358 -5350 -5348 -5349 -5360 -5369 -5361 -5355 -5354 -5356 -5362 -5353 -5357 -5361 -5359 -5352 -5346 -5339 -5342 -5344 -5343 -5325 -5334 -5337 -5335 -5331 -5339 -5330 -5327 -5327 -5326 -5341 -5342 -5345 -5355 -5358 -5352 -5353 -5355 -5356 -5357 -5350 -5337 -5344 -5349 -5354 -5363 -5368 -5368 -5375 -5379 -5385 -5384 -5387 -5375 -5391 -5396 -5393 -5395 -5407 -5416 -5419 -5417 -5417 -5432 -5433 -5437 -5435 -5433 -5435 -5428 -5429 -5435 -5438 -5439 -5439 -5438 -5438 -5444 -5455 -5457 -5453 -5444 -5440 -5439 -5443 -5444 -5441 -5439 -5439 -5446 -5455 -5486 -5494 -5504 -5511 -5517 -5515 -5501 -5495 -5487 -5492 -5505 -5526 -5542 -5545 -5544 -5542 -5528 -5511 -5481 -5467 -5442 -5428 -5432 -5440 -5441 -5440 -5439 -5441 -5448 -5444 -5440 -5441 -5441 -5442 -5444 -5446 -5440 -5435 -5433 -5429 -5426 -5425 -5429 -5435 -5429 -5427 -5422 -5434 -5438 -5437 -5438 -5435 -5425 -5418 -5422 -5424 -5425 -5433 -5437 -5431 -5424 -5427 -5429 -5429 -5428 -5433 -5435 -5431 -5428 -5425 -5420 -5421 -5424 -5424 -5425 -5427 -5427 -5418 -5417 -5412 -5413 -5408 -5435 -5459 -5480 -5477 -5466 -5439 -5415 -5405 -5404 -5398 -5409 -5408 -5397 -5420 -5446 -5487 -5509 -5517 -5522 -5513 -5487 -5451 -5407 -5400 -5391 -5394 -5399 -5399 -5390 -5387 -5388 -5391 -5397 -5405 -5403 -5399 -5396 -5397 -5395 -5395 -5395 -5396 -5396 -5396 -5402 -5403 -5407 -5406 -5407 -5402 -5400 -5392 -5401 -5402 -5399 -5393 -5389 -5380 -5376 -5377 -5385 -5389 -5387 -5385 -5394 -5391 -5404 -5408 -5404 -5406 -5409 -5401 -5404 -5415 -5417 -5412 -5413 -5416 -5417 -5415 -5411
-5450 -5450 -5454 -5460 -5466 -5453 -5455 -5465 -5463 -5458 -5452 -5454 -5453 -5450 -5454 -5458 -5457 -5456 -5459 -5456 -5462 -5464 -5463 -5466 -5470 -5461 -5459 -5462 -5460 -5460 -5462 -5472 -5470 -5460 -5464 -5472 -5475 -5478 -5474 -5481 -5480 -5472 -5474 -5477 -5475 -5467 -5467 -5468 -5472 -5479 -5475 -5472 -5480 -5484 -5483 -5483 -5468 -5454 -5457 -5457 -5455 -5456 -5464 -5463 -5453 -5452 -5449 -5448 -5452 -5454 -5450 -5454 -5455 -5453 -5450 -5449 -5443 -5442 -5451 -5462 -5452 -5460 -5450 -5448 -5450 -5451 -5454 -5456 -5453 -5446 -5449 -5450 -5448 -5451 -5453 -5449 -5441 -5438 -5434 -5427 -5427 -5438 -5451 -5451 -5437 -5441 -5432 -5428 -5428 -5433 -5425 -5427 -5428 -5427 -5429 -5427 -5427 -5428 -5429 -5432 -5438 -5434 -5433 -5441 -5441 -5440 -5444 -5428 -5429 -5435 -5437 -5435 -5429 -5430 -5432 -5431 -5435 -5437 -5439 -5424 -5424 -5428 -5430 -5440 -5435 -5428 -5426 -5423 -5426 -5428 -5418 -5414 -5417 -5421 -5422 -5420 -5426 -5428 -5425 -5416 -5412 -5411 -5403 -5396 -5395 -5391 -5376 -5365 -5357 -5349 -5351 -5347 -5359 -5387 -5426 -5469 -5489 -5526 -5552 -5565 -5574 -5594 -5573 -5569 -5559 -5549 -5531 -5508 -5475 -5457 -5419 -5381 -5347 -5331 -5336 -5342 -5351 -5361 -5375 -5380 -5394 -5396 -5398 -5405 -5401 -5393 -5389 -5387 -5391 -5412 -5417 -5412 -5408 -5410 -5429 -5433 -5414 -5403 -5406 -5405 -5399 -5402 -5406 -5402 -5398 -5401 -5400 -5403 -5400 -5396 -5395 -5395 -5399 -5403 -5401 -5388 -5380 -5374 -5379 -5377 -5373 -5362 -5355 -5349 -5349 -5355 -5362 -5366 -5358 -5356 -5359 -5358 -5363 -5357 -5357 -5355 -5354 -5354 -5351 -5347 -5347 -5347 -5344 -5330 -5334 -5334 -5332 -5330 -5335 -5329 -5333 -5336 -5328 -5343 -5341 -5341 -5348 -5347 -5344 -5348 -5351 -5351 -5349 -5347 -5344 -5351 -5355 -5357 -5367 -5366 -5361 -5373 -5379 -5382 -5385 -5385 -5375 -5386 -5394 -5397 -5400 -5408 -5413 -5411 -5408 -5407 -5430 -5430 -5436 -5438 -5435 -5437 -5436 -5437 -5441 -5445 -5445 -5444 -5440 -5438 -5440 -5442 -5444 -5444 -5441 -5438 -5441 -5446 -5445 -5440 -5437 -5440 -5446 -5448 -5471 -5477 -5490 -5499 -5502 -5497 -5485 -5482 -5485 -5499 -5512 -5535 -5552 -5557 -5563 -5563 -5546 -5528 -5497 -5480 -5451 -5433 -5429 -5434 -5435 -5437 -5440 -5445 -5446 -5442 -5441 -5439 -5441 -5445 -5450 -5449 -5441 -5440 -5439 -5440 -5434 -5427 -5428 -5433 -5427 -5427 -5420 -5434 -5438 -5433 -5433 -5430 -5427 -5426 -5426 -5427 -5429 -5433 -5433 -5428 -5423 -5428 -5433 -5435 -5434 -5436 -5439 -5434 -5430 -5427 -5426 -5428 -5423 -5419 -5422 -5429 -5427 -5420 -5421 -5416 -5415 -5407 -5420 -5434 -5446 -5442 -5436 -5423 -5412 -5406 -5403 -5399 -5411 -5412 -5398 -5414 -5447 -5477 -5494 -5501 -5510 -5505 -5479 -5439 -5399 -5393 -5386 -5387 -5390 -5392 -5388 -5386 -5386 -5389 -5393 -5399 -5398 -5395 -5390 -5388 -5390 -5394 -5394 -5395 -5395 -5401 -5400 -5400 -5399 -5399 -5402 -5399 -5402 -5400 -5402 -5399 -5396 -5386 -5387 -5383 -5376 -5376 -5380 -5385 -5384 -5379 -5389 -5390 -5399 -5403 -5403 -5406 -5409 -5404 -5408 -5416 -5415 -5408 -5410 -5417 -5421 -5420 -5412
-5451 -5454 -5455 -5458 -5461 -5455 -5456 -5462 -5458 -5457 -5455 -5455 -5455 -5453 -5455 -5461 -5458 -5454 -5459 -5459 -5460 -5461 -5458 -5461 -5465 -5461 -5460 -5462 -5460 -5466 -5469 -5472 -5462 -5452 -5460 -5468 -5472 -5476 -5476 -5477 -5473 -5471 -5477 -5477 -5475 -5470 -5466 -5466 -5468 -5472 -5470 -5476 -5488 -5486 -5484 -5481 -5462 -5446 -5454 -5457 -5454 -5454 -5463 -5463 -5455 -5457 -5451 -5449 -5453 -5454 -5453 -5457 -5456 -5453 -5453 -5456 -5452 -5447 -5454 -5470 -5451 -5463 -5450 -5447 -5446 -5445 -5447 -5454 -5457 -5450 -5453 -5454 -5448 -5449 -5451 -5447 -5441 -5438 -5436 -5436 -5435 -5438 -5441 -5440 -5434 -5439 -5433 -5427 -5422 -5420 -5419 -5424 -5426 -5424 -5425 -5425 -5425 -5426 -5427 -5433 -5438 -5434 -5434 -5443 -5440 -5441 -5446 -5429 -5428 -5438 -5439 -5433 -5426 -5429 -5430 -5429 -5429 -5432 -5435 -5437 -5429 -5429 -5426 -5431 -5423 -5420 -5421 -5422 -5423 -5425 -5420 -5418 -5419 -5420 -5418 -5416 -5424 -5424 -5421 -5416 -5418 -5414 -5405 -5400 -5398 -5395 -5385 -5375 -5365 -5352 -5353 -5343 -5348 -5362 -5383 -5421 -5440 -5475 -5495 -5508 -5524 -5544 -5531 -5529 -5522 -5502 -5484 -5457 -5427 -5412 -5383 -5356 -5339 -5331 -5335 -5340 -5351 -5366 -5375 -5383 -5393 -5393 -5401 -5414 -5403 -5392 -5390 -5390 -5390 -5405 -5415 -5421 -5420 -5417 -5422 -5427 -5416 -5407 -5411 -5412 -5408 -5404 -5393 -5402 -5397 -5398 -5404 -5404 -5400 -5395 -5392 -5392 -5393 -5397 -5398 -5383 -5379 -5370 -5375 -5372 -5363 -5359 -5354 -5355 -5358 -5362 -5361 -5359 -5355 -5360 -5364 -5364 -5369 -5362 -5360 -5357 -5357 -5359 -5354 -5347 -5347 -5351 -5349 -5340 -5337 -5328 -5338 -5330 -5327 -5317 -5327 -5334 -5331 -5338 -5339 -5339 -5342 -5342 -5342 -5348 -5349 -5346 -5343 -5347 -5351 -5352 -5353 -5356 -5366 -5368 -5363 -5373 -5377 -5379 -5380 -5383 -5375 -5379 -5385 -5393 -5402 -5412 -5413 -5408 -5406 -5407 -5431 -5433 -5434 -5437 -5441 -5443 -5449 -5454 -5450 -5447 -5443 -5442 -5439 -5437 -5438 -5440 -5444 -5445 -5441 -5440 -5442 -5447 -5444 -5440 -5438 -5435 -5441 -5441 -5460 -5466 -5478 -5488 -5490 -5483 -5476 -5475 -5484 -5497 -5514 -5540 -5559 -5565 -5572 -5569 -5556 -5539 -5511 -5493 -5458 -5432 -5423 -5425 -5430 -5434 -5441 -5444 -5441 -5439 -5442 -5438 -5439 -5449 -5454 -5451 -5447 -5448 -5445 -5441 -5434 -5426 -5428 -5432 -5428 -5428 -5429 -5437 -5436 -5433 -5432 -5428 -5428 -5433 -5431 -5428 -5429 -5432 -5431 -5431 -5430 -5431 -5434 -5438 -5441 -5440 -5444 -5440 -5432 -5422 -5429 -5433 -5426 -5421 -5422 -5425 -5423 -5421 -5420 -5419 -5416 -5408 -5415 -5419 -5419 -5414 -5412 -5410 -5407 -5405 -5406 -5402 -5413 -5415 -5398 -5406 -5440 -5463 -5472 -5477 -5484 -5482 -5462 -5428 -5396 -5393 -5386 -5384 -5386 -5390 -5393 -5393 -5395 -5399 -5395 -5394 -5394 -5392 -5385 -5380 -5384 -5396 -5393 -5393 -5390 -5400 -5396 -5394 -5393 -5395 -5397 -5397 -5397 -5404 -5399 -5393 -5391 -5379 -5378 -5377 -5376 -5374 -5371 -5379 -5383 -5375 -5385 -5388 -5396 -5403 -5404 -5408 -5407 -5414 -5416 -5419 -5416 -5409 -5406 -5409 -5414 -5417 -5409
-5454 -5457 -5454 -5451 -5451 -5457 -5459 -5461 -5455 -5454 -5457 -5455 -5454 -5452 -5451 -5456 -5458 -5456 -5462 -5463 -5466 -5468 -5462 -5458 -5458 -5463 -5461 -5460 -5461 -5467 -5469 -5467 -5460 -5459 -5465 -5471 -5472 -5471 -5474 -5476 -5472 -5470 -5475 -5478 -5477 -5472 -5466 -5467 -5471 -5472 -5468 -5472 -5477 -5476 -5476 -5479 -5465 -5452 -5454 -5454 -5449 -5449 -5462 -5463 -5455 -5458 -5453 -5452 -5454 -5454 -5453 -5456 -5457 -5455 -5455 -5463 -5462 -5457 -5458 -5469 -5452 -5458 -5452 -5448 -5444 -5444 -5448 -5456 -5462 -5458 -5453 -5454 -5447 -5450 -5450 -5443 -5437 -5436 -5439 -5444 -5443 -5436 -5431 -5431 -5432 -5435 -5434 -5426 -5419 -5417 -5417 -5426 -5432 -5435 -5434 -5431 -5427 -5425 -5427 -5435 -5439 -5432 -5433 -5442 -5439 -5438 -5438 -5429 -5429 -5437 -5438 -5430 -5425 -5426 -5427 -5427 -5427 -5429 -5430 -5431 -5424 -5422 -5430 -5423 -5418 -5419 -5421 -5425 -5424 -5422 -5421 -5421 -5423 -5421 -5417 -5417 -5420 -5423 -5421 -5415 -5415 -5413 -5409 -5407 -5403 -5397 -5392 -5387 -5376 -5360 -5358 -5349 -5346 -5349 -5350 -5377 -5390 -5417 -5438 -5452 -5468 -5508 -5480 -5478 -5464 -5448 -5432 -5407 -5383 -5374 -5354 -5338 -5333 -5332 -5338 -5345 -5362 -5365 -5377 -5383 -5398 -5392 -5401 -5414 -5404 -5393 -5393 -5397 -5392 -5403 -5404 -5413 -5415 -5415 -5415 -5414 -5406 -5403 -5413 -5418 -5415 -5407 -5403 -5405 -5397 -5394 -5400 -5402 -5397 -5392 -5390 -5391 -5392 -5391 -5390 -5384 -5378 -5374 -5375 -5366 -5358 -5353 -5351 -5356 -5360 -5360 -5357 -5358 -5357 -5361 -5362 -5365 -5372 -5363 -5360 -5363 -5364 -5364 -5352 -5345 -5346 -5349 -5350 -5347 -5339 -5331 -5336 -5335 -5326 -5322 -5328 -5332 -5336 -5339 -5341 -5341 -5344 -5345 -5347 -5349 -5348 -5345 -5343 -5345 -5348 -5347 -5346 -5348 -5359 -5372 -5374 -5376 -5379 -5382 -5380 -5383 -5379 -5382 -5386 -5396 -5406 -5416 -5418 -5415 -5417 -5421 -5436 -5432 -5439 -5439 -5444 -5446 -5453 -5455 -5457 -5447 -5442 -5442 -5438 -5434 -5437 -5442 -5448 -5449 -5445 -5442 -5441 -5441 -5439 -5442 -5441 -5429 -5435 -5437 -5454 -5458 -5465 -5475 -5475 -5467 -5463 -5464 -5471 -5490 -5512 -5541 -5560 -5567 -5573 -5568 -5559 -5547 -5523 -5504 -5462 -5431 -5422 -5421 -5424 -5430 -5441 -5443 -5441 -5438 -5438 -5436 -5437 -5447 -5448 -5443 -5439 -5446 -5442 -5435 -5431 -5431 -5432 -5433 -5426 -5430 -5435 -5434 -5428 -5427 -5429 -5429 -5429 -5431 -5427 -5424 -5426 -5432 -5432 -5434 -5435 -5433 -5434 -5438 -5443 -5439 -5439 -5437 -5429 -5421 -5432 -5439 -5433 -5427 -5425 -5423 -5418 -5419 -5417 -5420 -5417 -5413 -5417 -5412 -5408 -5404 -5402 -5404 -5407 -5412 -5416 -5405 -5414 -5398 -5397 -5403 -5424 -5440 -5451 -5454 -5456 -5456 -5445 -5419 -5395 -5392 -5393 -5390 -5389 -5389 -5391 -5391 -5397 -5407 -5402 -5394 -5392 -5389 -5383 -5381 -5390 -5399 -5396 -5394 -5393 -5403 -5396 -5396 -5393 -5395 -5396 -5395 -5393 -5399 -5395 -5391 -5390 -5381 -5377 -5374 -5375 -5373 -5370 -5380 -5384 -5378 -5383 -5383 -5396 -5401 -5404 -5406 -5404 -5420 -5422 -5420 -5416 -5408 -5404 -5403 -5405 -5410 -5408
-5454 -5455 -5451 -5456 -5441 -5461 -5461 -5461 -5453 -5453 -5455 -5453 -5451 -5461 -5449 -5453 -5454 -5457 -5468 -5463 -5469 -5472 -5464 -5457 -5456 -5462 -5460 -5463 -5462 -5459 -5460 -5461 -5461 -5468 -5474 -5480 -5481 -5477 -5473 -5476 -5474 -5469 -5471 -5478 -5477 -5468 -5468 -5472 -5473 -5474 -5470 -5463 -5461 -5463 -5465 -5471 -5464 -5457 -5455 -5451 -5447 -5447 -5464 -5455 -5457 -5458 -5458 -5458 -5456 -5452 -5449 -5452 -5454 -5452 -5453 -5458 -5458 -5459 -5460 -5463 -5457 -5452 -5452 -5447 -5444 -5445 -5452 -5459 -5462 -5458 -5451 -5451 -5443 -5450 -5450 -5440 -5433 -5434 -5443 -5448 -5443 -5436 -5433 -5431 -5434 -5433 -5431 -5425 -5431 -5417 -5419 -5427 -5433 -5438 -5437 -5434 -5431 -5432 -5435 -5441 -5440 -5432 -5432 -5441 -5439 -5438 -5439 -5429 -5428 -5433 -5434 -5431 -5428 -5425 -5425 -5427 -5426 -5426 -5424 -5428 -5427 -5433 -5428 -5420 -5417 -5418 -5420 -5424 -5422 -5418 -5417 -5418 -5419 -5421 -5418 -5421 -5419 -5423 -5422 -5414 -5411 -5411 -5409 -5408 -5405 -5399 -5394 -5391 -5384 -5366 -5367 -5355 -5350 -5345 -5343 -5345 -5352 -5368 -5389 -5405 -5418 -5467 -5425 -5423 -5415 -5402 -5387 -5368 -5354 -5351 -5344 -5336 -5338 -5338 -5340 -5347 -5367 -5371 -5378 -5382 -5404 -5399 -5403 -5406 -5397 -5391 -5393 -5396 -5392 -5408 -5405 -5403 -5411 -5413 -5411 -5402 -5394 -5396 -5405 -5409 -5410 -5403 -5401 -5406 -5399 -5393 -5393 -5395 -5389 -5386 -5388 -5389 -5390 -5385 -5382 -5382 -5376 -5372 -5368 -5361 -5351 -5347 -5347 -5356 -5359 -5360 -5362 -5364 -5364 -5361 -5360 -5361 -5369 -5358 -5356 -5365 -5369 -5361 -5349 -5346 -5348 -5349 -5346 -5345 -5340 -5333 -5334 -5333 -5332 -5338 -5340 -5337 -5339 -5337 -5337 -5340 -5344 -5346 -5350 -5353 -5351 -5344 -5343 -5344 -5345 -5346 -5343 -5342 -5352 -5367 -5376 -5377 -5381 -5384 -5383 -5386 -5385 -5391 -5395 -5404 -5411 -5415 -5415 -5415 -5424 -5430 -5443 -5441 -5444 -5440 -5444 -5446 -5456 -5458 -5452 -5442 -5443 -5443 -5439 -5437 -5438 -5441 -5447 -5450 -5451 -5450 -5444 -5439 -5439 -5442 -5441 -5437 -5441 -5434 -5450 -5451 -5451 -5455 -5454 -5446 -5443 -5445 -5455 -5480 -5505 -5532 -5552 -5558 -5565 -5562 -5556 -5545 -5521 -5505 -5463 -5430 -5421 -5415 -5416 -5423 -5435 -5442 -5443 -5438 -5434 -5433 -5436 -5441 -5442 -5437 -5440 -5442 -5440 -5440 -5440 -5440 -5442 -5436 -5427 -5432 -5436 -5430 -5422 -5425 -5428 -5432 -5432 -5428 -5424 -5423 -5424 -5431 -5433 -5434 -5437 -5435 -5433 -5432 -5437 -5431 -5424 -5426 -5424 -5422 -5431 -5434 -5432 -5424 -5422 -5421 -5419 -5419 -5421 -5418 -5415 -5416 -5417 -5409 -5408 -5409 -5408 -5407 -5416 -5422 -5420 -5407 -5412 -5401 -5399 -5399 -5413 -5419 -5425 -5427 -5430 -5429 -5422 -5407 -5397 -5395 -5399 -5397 -5392 -5388 -5391 -5394 -5400 -5406 -5402 -5392 -5387 -5382 -5381 -5389 -5394 -5402 -5399 -5397 -5398 -5408 -5402 -5399 -5396 -5396 -5397 -5392 -5388 -5392 -5392 -5392 -5391 -5386 -5378 -5375 -5378 -5378 -5377 -5384 -5381 -5377 -5382 -5387 -5395 -5396 -5401 -5399 -5402 -5422 -5423 -5418 -5412 -5407 -5404 -5403 -5404 -5406 -5412
